0.688136643844127,0.6925936860709725,0.6971263136853447,0.7016508964509898,0.70674413768028,0.7132183936818125,0.7218031444968831,0.7329307762405926,0.7466288238591002,0.7625160957292062,0.7799053943884926,0.7980104206953741,0.8162517344301792,0.8337865189386143,0.8490057743164638,0.8610258489509457,0.869708223666036,0.8754750909165923,0.8791205308037936,0.8816198775650929,0.8839351051080975,0.8868177395262855,0.8906086049451195,0.8950342217460088,0.8990416572068696,0.9022945205396825,0.9053337392300059,0.9075835524266581,0.907954535310236,0.9054490361622811,0.8995618957843605,0.8904794953016274,0.8790713418693074,0.8666806764151033,0.8547080415071369,0.8439941426866339,0.8340520366450626,0.8239277867838531,0.8137477281407511,0.803976019082532,0.7950589338324086,0.7872091217938526,0.780290657444038,0.7738042173042269,0.766973756210593,0.7589337328846032,0.7490170808348813,0.7371440753843492,0.7242102356171073,0.7110026448024517,0.6976863165854109,0.6844043391938637,0.6712903762437773,0.6584655980855703,0.6460333663229936,0.6340767570251208,0.6226540708412339,0.6117960998633688,0.601503217306157,0.5917415567691574,0.5825021997421185,0.5742134941295525,0.5673573502616152,0.5622009438696051,0.5588332067695917,0.5572021890870292,0.5571498315980185,0.5584470078500835,0.5608248044491044,0.5640041247077918,0.5677247522638973,0.5717726608959567,0.5761862159607145,0.5817195714868726,0.5884288283014852,0.5956009636205758,0.602201856247435,0.6072277492000088,0.6099482652139474,0.610050786142316,0.6076799797779495,0.6033784474174814,0.5979216084305069,0.5920522899937101,0.5858626516171247,0.5786738498143307,0.5709608357820486,0.5640044668212042,0.5591969779401351,0.5575468490295394,0.5593890911142527,0.5642958946707183,0.5711921340185317,0.5786713301443362,0.585515888101236,0.5914180192668623,0.5971013844558866,0.6023740665261188,0.6065167112393006,0.6088045018521097,0.6087536014081003,0.6062693943433751,0.6016937773042317,0.5957575007696515,0.5894274733740388,0.5836615495271348,0.5790574569655633,0.5754154221906453,0.5721243993405022,0.5694122405717238,0.5675193984525059,0.5665741725514949,0.5666134538627096,0.5676002276941,0.5694384216723821,0.5719849046287896,0.5750592481997634,0.578447459797923,0.5819083502332961,0.5851912865602561,0.5887823662284157,0.593434398020934,0.5989122501226255,0.6043884830759907,0.6088576038854614,0.6114409993357836,0.6115944998749014,0.6092090476636252,0.6046068513339701,0.598437123392508,0.5914655268505836,0.5842969474375671,0.5777054525624751,0.5724672813078865,0.5687420403968875,0.5661930148568979,0.5641374028571322,0.5617032140927413,0.5579919630830261,0.5522457526968565,0.5440186734435004,0.5333517563133741,0.5209574680383513,0.5082978957872558,0.496396737136023,0.4858169467731697,0.4771951383840648,0.47097447983983526,0.4672306470042823,0.46558896254595894,0.46526916661459256,0.4652098669564481,0.4643220157365987,0.46182986183911,0.45772690605160815,0.4529997318283228,0.44747751242359884
0.7025400821958857,0.7065739668876138,0.7106203976227178,0.7146046711573459,0.7191148531159908,0.7249793442665667,0.7329481627646461,0.7434779423668545,0.7566210386772803,0.7720178688229133,0.7889933893208562,0.8067571692796617,0.824699881150366,0.8419012455084561,0.8566618163341282,0.8680640284910994,0.875985075516324,0.880898480070972,0.8836715778796849,0.885360619127939,0.8870024920785006,0.889403370494553,0.8929246769333513,0.8972655174651781,0.9012861624620935,0.9046046814113238,0.9078211732818495,0.9103938359841274,0.9112323097772522,0.9093078492631491,0.9040607682087121,0.8956082937067358,0.884748637608261,0.872765658246261,0.8610293775256452,0.8503984152899595,0.8404591441716511,0.8300958107554817,0.819122516456428,0.8078761044438809,0.7968357973842947,0.7863665313302449,0.7765617381143731,0.7671857873595235,0.7577173698522921,0.7474919071988473,0.7359448877647848,0.722954636040488,0.7092063590103391,0.6953892446147918,0.6817124438413765,0.6683364540610939,0.6553898722185482,0.6429720789614193,0.6311544223717185,0.6199825401901642,0.609476427673387,0.5996311972176495,0.5904170048468743,0.5817772802705264,0.5737164239577148,0.5668740457957424,0.5619061354117986,0.559096925317626,0.5584336889885307,0.5596826093426887,0.562461785083623,0.5663133082471778,0.5707709742655241,0.5754259084850882,0.5799904483066219,0.584359800174402,0.5887625236504981,0.5938181550234961,0.5994458791887197,0.6049480185153061,0.6094203135340684,0.6120655721369748,0.6123975145081721,0.6103458141935801,0.6062551744889236,0.6007847207075824,0.5947012995921571,0.5885714057153983,0.5822367734544058,0.5751130895939196,0.5677832117178899,0.5615472424203802,0.5577518541302902,0.5573169337370465,0.5604670763397184,0.5666606735245371,0.5747237459170319,0.5831811996770963,0.5907922401153464,0.5972841257959198,0.6034860896799625,0.6093220110619912,0.6141136571704378,0.6171115282033849,0.6177612873374473,0.6158713812204549,0.6116800527319853,0.6058260869879918,0.599215392764745,0.5927944084395786,0.5872166780706984,0.5824229783393164,0.5778543218472999,0.5735662007684851,0.5697434424040403,0.5665811524190763,0.5642662740579429,0.5629583207621577,0.5627690057553164,0.5637400395423541,0.5658219198204384,0.5688473368734639,0.5725088429923088,0.5763549904971261,0.580730690312259,0.5864352863245352,0.5932337159896669,0.6002443568138165,0.6063675799502646,0.6106053943945243,0.6122878761128884,0.6111921028749017,0.6075602419685417,0.602017207365951,0.5953857865361895,0.588427929193509,0.5820290766844933,0.5769555116887204,0.5733517491436005,0.5708705121864153,0.5688249444667938,0.5663467684468456,0.5625485942414746,0.5566906560235605,0.5483502646611977,0.5375934009199145,0.5251550054611479,0.5125047711155338,0.5005734461664961,0.4898265687439939,0.4808804406098053,0.4742156038760518,0.4699803642357662,0.4678902944411618,0.4672535827398291,0.4670801698806654,0.4663202747318102,0.46419140569489037,0.4606234587366665,0.456493292209655,0.45163530437304406
0.7149609064082053,0.7187514099219419,0.7224783689323293,0.726054383358349,0.7300580037363082,0.7353210236944092,0.7426141050581545,0.7524321681275972,0.7648781447441849,0.7796459084336675,0.7961023514663067,0.8134683072468119,0.8310913513608718,0.8479639701761247,0.8623379358815152,0.8732829412654567,0.8806889068608279,0.8850598156744958,0.8873041399771711,0.8885219807886298,0.889789824821044,0.8919414109425142,0.8953461537811965,0.8996845212948579,0.9037634631712103,0.9071192281867131,0.910316418452045,0.9128408874588544,0.9136585517088797,0.9117964293478011,0.9067310548110096,0.8985856869429225,0.8881331137614896,0.8766078840301655,0.8653238338874905,0.8551020355231568,0.8455296758560805,0.8352552504588353,0.8237222246885384,0.8111075852171901,0.7979195975953095,0.784698435339502,0.7718130154584143,0.7593531507337143,0.7471179989157323,0.7347005374049426,0.7216682443718329,0.7078393228224834,0.6936101870132527,0.6795611517677979,0.6659760637778115,0.6530223116905238,0.6407865491576901,0.6292999603352013,0.6185571354958208,0.6085330202512441,0.5991925248864041,0.5904975588898006,0.5824088744075915,0.57488210484359,0.5679706144709744,0.5625130050219761,0.559316065451321,0.5586743860370499,0.5604797298236702,0.5643319805672645,0.5696459975716469,0.5757575191099463,0.5820233088220037,0.5879191556564077,0.5931350044894327,0.5976670685120127,0.6019129617336026,0.606343841237783,0.610739216343972,0.6144176310633278,0.6166096713889653,0.6167310641602246,0.6145467067782171,0.6102350222257984,0.6043449790674091,0.5976533613564493,0.59091508427684,0.5845115703547732,0.5780203434545723,0.5709365609269569,0.5639286929414392,0.5582948833043045,0.5553226264816093,0.5558432099998962,0.5599844353665242,0.5671173006839343,0.5760020024963007,0.5851273858065766,0.5932484730469972,0.6001190716778378,0.6066532851754263,0.6129178058634899,0.6182933632274986,0.6220052843271207,0.6234146407923019,0.6222101263820854,0.618498914013279,0.612801430755612,0.6059411577295811,0.5988414580927167,0.5922155751649141,0.5861671184172177,0.58022907146929,0.5743224073009497,0.5686061066275259,0.5633571137905626,0.5589096733583321,0.5555986111620459,0.553706073693408,0.553412564889584,0.5547526806159769,0.5575709666114198,0.5614879069487105,0.5658902322349534,0.5710019382817074,0.5776361246460266,0.585561599353927,0.5938722032878837,0.6014141735728212,0.6071109028615354,0.6101969656429015,0.6103523360250226,0.6077382125700256,0.6029403009795806,0.5968114815085797,0.5902424949628842,0.584238527095714,0.57957514430061,0.5763740409364125,0.5742557297031784,0.5725047282730152,0.5702366914847863,0.566566482539406,0.5607743676960012,0.5524726671929169,0.5417689544929674,0.5294345030789679,0.5169439480480408,0.5051069634642328,0.4942781069974833,0.4850646742504282,0.47800663516805547,0.4733482304529628,0.47091121430499866,0.47009851117068335,0.46998576265346886,0.4695476312949471,0.4679778226969023,0.46513016489843856,0.461774987978719,0.4577374465375695
0.7245711153167165,0.7283477910398571,0.7319703404296489,0.7353113879711914,0.7389138667074574,0.7435969035882408,0.7501519247440064,0.7591287243351984,0.7707123112634758,0.784689312315172,0.8005052888810932,0.8174115497910239,0.834696529305989,0.8512533256062574,0.8653350227867512,0.8760237993617441,0.8832178393638384,0.8874255289785856,0.8895563658744725,0.8907090034508858,0.8919559474639259,0.8941253574114424,0.8975800733123219,0.9019928726410121,0.9061599685673359,0.9094918780051695,0.9124009314954666,0.9143943650893797,0.9145651239778292,0.9121042597918853,0.9066369896444475,0.8983856439003429,0.8881544661622353,0.877141332143711,0.8665713509169348,0.8571587120328378,0.8484017547089282,0.8386452758235573,0.8269212697174945,0.8132169490772988,0.7980572874054854,0.7821669393420517,0.7662205713854185,0.7506801252336399,0.7357206724775758,0.721243925724528,0.7069798585337101,0.6926759214646637,0.6783737260638985,0.6645320096614185,0.6515291138777818,0.6395207106826906,0.6285125980973926,0.6184238677135535,0.6091359164450401,0.6005309309881963,0.5925154418119334,0.5850328362149625,0.5780627476109438,0.5716065970546421,0.5657862924312616,0.5615948008970059,0.5599452911834127,0.5611324058751191,0.5649685023626673,0.5709211930369671,0.5782468083966447,0.5861213129184075,0.5937656090422471,0.6005677604866224,0.6062013637247562,0.6107410522583723,0.6147083577217157,0.6184328437139377,0.6215711226151359,0.6234614584944314,0.6234605009538612,0.6211810077693787,0.6166188094926742,0.6101797035237252,0.6025986889565624,0.5947579829780351,0.5873986739239295,0.5807280702701477,0.574079434208654,0.5670164300051113,0.560265238851031,0.5550943341072875,0.552715918311264,0.5538720448790067,0.5586112119209489,0.5662498782528633,0.5755241633628753,0.5849268545691001,0.5932334879140586,0.6002142979565873,0.6068394891178757,0.6133410802637951,0.6191750771400715,0.6235419974579786,0.6257061824006516,0.6252164079387019,0.6220245256147984,0.6165085679222281,0.6093901510061083,0.601558594440824,0.5937886182897668,0.5863657628473897,0.5789634379795997,0.571435868266047,0.5639619919802433,0.5569164621852601,0.5507657003328079,0.5459761917263428,0.5429358873207273,0.5418885019252145,0.5428815959013524,0.5457238175836658,0.5499605010744962,0.5548847156590062,0.5606368211399263,0.567995786195697,0.5767349305318642,0.5859625826621401,0.5945287311782207,0.601336169829878,0.6055726554038583,0.6068502671040571,0.6052558414197006,0.6013179388605973,0.5958822769765869,0.5899211552800868,0.5845523195492931,0.5805717819308264,0.5780648851129252,0.5765944557488685,0.5753914754298558,0.5735405622898575,0.5701561581760062,0.5645505392024046,0.5563919184450482,0.545852814131815,0.533753991210049,0.5215631237585148,0.5099373145688757,0.4991144408457674,0.48971010315984165,0.48234886300275553,0.47739392229849303,0.47478525003902544,0.47401845607425136,0.4742200673722529,0.47436577187239803,0.4736013227510674,0.4716943015388446,0.46932076957671337,0.4662878465271466
0.7306983043298567,0.7346805572276911,0.7384062344908586,0.7416826518137598,0.7449924398025156,0.7491269944288329,0.754897465650984,0.7629238572183057,0.7735015590871596,0.7865458854647573,0.8016145280045783,0.8180075471689009,0.8349400612777711,0.8511949985680621,0.8650722193685335,0.8756890673054212,0.8829473454623011,0.8873356257206435,0.889727908890633,0.8911792689661795,0.8927188434092136,0.8951390234304598,0.898782593474658,0.9033258294321974,0.9075935048168362,0.9108302030552994,0.9131896433377011,0.9141947442694137,0.9131311051881991,0.909453335112298,0.9030394117063753,0.8942962972524406,0.8841118052718957,0.8736583273277193,0.8640422676201338,0.8558068457003141,0.8482800641199325,0.8394712035733062,0.828004481832726,0.8136642486982877,0.7969725070348319,0.7788226497340118,0.7601888951592298,0.7419115567878558,0.7245585089558242,0.708362863783988,0.6932368140480943,0.678861053896596,0.6648989286523402,0.6516764997286918,0.6396604437487288,0.6289704759027903,0.6195025824039812,0.6110404382501841,0.6033411617678388,0.5961984293529885,0.5894790429654938,0.5831363913022263,0.5771993791766864,0.5717349818865745,0.566921704644485,0.5638279259333472,0.5634108953384331,0.5659522607894767,0.5712092767985598,0.5785681754108166,0.587191312670201,0.5961628212842661,0.6046266505586729,0.6119216847020061,0.6177125507843327,0.6221162270886931,0.6257155203061331,0.6287339822311835,0.6307494430280551,0.6311247197648195,0.6293182365426193,0.625095233818439,0.6186275486563309,0.6104925139327431,0.6015636611121874,0.5928001235242415,0.5849280203935935,0.5780183741819135,0.5712217051520946,0.5641701825998201,0.5576201169049972,0.5527849045855306,0.5507855975734746,0.5522750557002104,0.5572390892700446,0.5649705493883743,0.574220808806472,0.5835246966224965,0.591701668041705,0.5985306626657254,0.6050072691654685,0.6115359051777279,0.6176566213674077,0.6225464530827438,0.6253685739527733,0.6255234278661617,0.6227973400216612,0.6174146727304268,0.6099856168358734,0.6013592544742931,0.5923700257049127,0.5834913306689478,0.5745808810524556,0.5655131407891655,0.556540501221671,0.5481459843131029,0.5408989478333104,0.5353359010097876,0.5318667013653232,0.5307060717180093,0.5318319396267503,0.5349657889603504,0.5395832343120776,0.5449694904955277,0.5512323449122054,0.5590610929431401,0.5682312968802815,0.5779058297075469,0.5869996914608251,0.5944617391518344,0.5994904896467396,0.6016682743044003,0.6010219589235302,0.5980091517656264,0.5934288770832765,0.58827542483587,0.5837516280828584,0.5806711993344927,0.5790665526585187,0.5784220095759184,0.5779006791571375,0.5765520308583508,0.5734999405632137,0.5681093282652344,0.5601313358499208,0.5498264736685089,0.5380716811251774,0.5263037789466777,0.515002342279949,0.5042938833454411,0.4948216884537556,0.4873156560989574,0.482269816897735,0.4797430030474822,0.479310255027284,0.4801250692746674,0.481135659100357,0.48141740221867124,0.48064702690137096,0.4794324507754782,0.47756204229560745
0.733037477926805,0.7373905779938056,0.7413787721669888,0.7447253538406454,0.747834661484829,0.7514587188125267,0.7564271480213562,0.7634395870614585,0.7729212744222608,0.7849408815959918,0.7991918598857876,0.8150360348905467,0.8316065232669994,0.847569463461217,0.8613027968267196,0.8719741114807636,0.8794854216182321,0.8842884451181777,0.8871957795592623,0.8891901179159188,0.8912294229809254,0.8940498097223633,0.8979649593833909,0.902662819293788,0.9070246201625051,0.910101386506682,0.9117144880020016,0.9113990877096305,0.908679370902782,0.9033438040520342,0.8955956571870854,0.886086480118261,0.8758243293355688,0.8659636519409091,0.8574710361318811,0.8506729504650843,0.8446715385526643,0.8371568807930451,0.8263997041546464,0.8119903773053656,0.7944250118162014,0.7747251300626602,0.7541190982627831,0.7337842992540171,0.7146515529468364,0.6972708495336128,0.6817391268026192,0.6676888324290129,0.6544328745060297,0.6421565635229097,0.631380232303263,0.6221613860591261,0.6142736531520848,0.6073691259183643,0.601100232210374,0.5952046831937063,0.5895492770583775,0.5841363218918444,0.5790707400135907,0.5744866338730761,0.570575599586647,0.5683796077568507,0.568829673972666,0.5721801689513516,0.5781627959923775,0.586140903859187,0.5952581886004479,0.6045846808769105,0.6132547998266716,0.6206024610029163,0.6262904480216217,0.630435803253189,0.6336127079838436,0.6360005804354587,0.6371632910370825,0.6364945130361835,0.6335171122603073,0.6280815238882698,0.6204525945941511,0.6112956793598043,0.6015526211217949,0.5922172979839715,0.584001795923887,0.5768989842801695,0.5699730898019396,0.5629354406318211,0.5565512056958796,0.5519593293162671,0.5501789937373529,0.5517740810294656,0.556680238057554,0.5641893795918217,0.5730977413622564,0.5820103782544618,0.5898089213466826,0.5962771832950398,0.6024104813416208,0.6087747238483154,0.6149924419136287,0.6202194787034533,0.6235231670833803,0.6241622613266041,0.6217642216036594,0.6164057793348812,0.6085886895488805,0.5991211937686939,0.588892357104185,0.5785524217007766,0.56817245054597,0.5577385201893584,0.5476263658750756,0.5384292848296862,0.5307807221840345,0.5252170005582989,0.5220811418974395,0.5214668984709027,0.5232043558354663,0.5268833134124683,0.5319216280035409,0.5376877375152995,0.5443110814526533,0.5523412202456708,0.5615500735737984,0.5711884526473117,0.5802909562984817,0.5879144574873701,0.593324418454699,0.5961159715384562,0.596274994900154,0.5941820449441496,0.5905539086444169,0.5863460927398702,0.5828013161900296,0.5807349530642263,0.5801100513440793,0.5803223388424538,0.580465880865396,0.5795656409931894,0.5767752348847018,0.5715387525132047,0.5637169652650122,0.5536767480709855,0.542348321200666,0.5311050683180316,0.5202337445500108,0.5097680711580215,0.5003961126687775,0.49296206926960073,0.4880898691182279,0.48594362863663354,0.4861551697057446,0.487875636379955,0.48999865461780046,0.49151141792486996,0.49200562949410737,0.49205684660507687,0.49144377183041704
0.7317607219813677,0.7365686010413699,0.7409046010925191,0.7443997448086523,0.7473714681983133,0.7505265417579371,0.754710888493903,0.7607061932578045,0.7690737406969279,0.7800444715015419,0.7934566442518735,0.8087398814350647,0.824943940900415,0.8406173570167246,0.8542271902677446,0.8649964605681476,0.8728256440161526,0.8781226076565125,0.8816288648750112,0.8842434784098276,0.8868433744706836,0.8901006711409396,0.8942972924914584,0.8991363255485938,0.9035671598146371,0.9064376100945465,0.9072084981107348,0.9054266282050014,0.9008736509685907,0.8936985808253511,0.8844585103551905,0.8740727086642252,0.863683318081044,0.8544296761697315,0.8471295678153454,0.8418747962775889,0.8375213192261118,0.8315022041226781,0.8218300038868608,0.8079313402093693,0.7902548095377917,0.7698934708218841,0.7482539436195287,0.7267701864028394,0.7066647749082993,0.6887551547349371,0.6733068888273382,0.6599323617468242,0.6476655206137525,0.636546386100142,0.6270920414234161,0.6192735454853183,0.6127479781266972,0.6070652500414382,0.601818971963936,0.596745088887511,0.5917637347659065,0.586968039844183,0.5825582460242312,0.5787200148620852,0.5755924991033047,0.5740871529658093,0.5750429959277533,0.5786753059168709,0.5847182125106128,0.5925683666625812,0.6014218602862959,0.6104081900450523,0.6187162568734825,0.6257160593939344,0.6310752857904236,0.634870946451798,0.6376054184310546,0.6394897677968641,0.640146241024452,0.6390060891738986,0.6356129838460041,0.62982527689359,0.6219064389973974,0.6125138443779129,0.6025784241560312,0.5930810580108538,0.5847217580496138,0.5774829728175495,0.5704544780085955,0.5634451896162551,0.557217376849124,0.5528262597825964,0.551184175720728,0.5527669582395296,0.5574665522785183,0.5645854281732382,0.5729783029904403,0.5813348333822106,0.5886089872978549,0.5945909392716009,0.6002605030589425,0.6063190771275254,0.6124604822252724,0.617822679259436,0.6213913047897175,0.6223036185322433,0.6200504803325088,0.6145816947074757,0.6063053096544457,0.5959940151754045,0.5845827318294688,0.5728727278693223,0.5611565366514562,0.5496082825932334,0.5387637756159444,0.5293186632890466,0.5219284367955668,0.5170641608578888,0.5149256183993034,0.5154109142856729,0.518143233683569,0.5225516976907801,0.528013874777941,0.5340588434767692,0.5408864507979163,0.5488714494697245,0.5577754184874514,0.5669580544301648,0.5756121004111574,0.5829482336377277,0.5883447428564759,0.5914457653243285,0.592219026457796,0.5909688743068613,0.5883059040307904,0.5850936815094603,0.5825619970197718,0.5815016895388677,0.581795130485486,0.5827510189211826,0.5834075845099672,0.5827869361171757,0.5800990287892187,0.5748941089717812,0.5671640872848444,0.5573899716519737,0.5465445222134936,0.5359012533195745,0.5255528748775856,0.5154655619553781,0.5063835007586737,0.49926229415742823,0.4948408091064008,0.4933645605157196,0.4944935159273227,0.49734918087606605,0.5007485554558038,0.5035835314964799,0.5053745319662328,0.5067036133570003,0.5073575984870436
0.7275209585273648,0.7327748403817568,0.7374591137716229,0.7411154108117459,0.7439768134642207,0.7467049747233416,0.7501594493541562,0.7551983445013225,0.7625109385815685,0.7724819065546562,0.7850873626841585,0.7998226453911507,0.8156609092793191,0.8310383021053467,0.8445002066478106,0.8553192087403458,0.8633941257494753,0.8690937691281924,0.873096198235206,0.8762260439936662,0.879287851593818,0.882897131130039,0.8873079098219354,0.8922370572483197,0.896695335984248,0.8993365797024803,0.8992851891786515,0.8961015401957134,0.8898118105557101,0.8809058086491941,0.8702732178405702,0.8590831725469409,0.848601073941313,0.8399480738566272,0.8337987935531673,0.8300219821156152,0.8272471049401735,0.8227439801309276,0.8143846811121488,0.8014781048622432,0.7844104041201206,0.7642860076873468,0.7425997947274288,0.7209401968715475,0.700723891623417,0.6829615366659324,0.6680554121339058,0.6556272970418119,0.6445298391355969,0.6346563404988934,0.6264529509500371,0.6197868626278219,0.6142199856420184,0.6092477978979587,0.6044667676723687,0.599675204500507,0.5949020438258629,0.5903681156150469,0.5863780374619426,0.5831409810882269,0.5806729193261665,0.5796693239762066,0.5808305930834387,0.584324898951573,0.5899106543774955,0.5970599538619255,0.6050741424417447,0.6131968723920214,0.6207184817453862,0.6270758725592216,0.6319468211221326,0.6353391724810742,0.637641352591349,0.6391680040065307,0.6396648167686555,0.6386052340404075,0.6355127964515447,0.6301825827803624,0.6227899209671648,0.6138970984379453,0.6043510108190322,0.5950771173016453,0.5867654691206888,0.5794508822062543,0.5723519678309995,0.5653967920702009,0.5593433685520274,0.5551648057003913,0.5536692611592834,0.5552458008151551,0.5597423519575929,0.5664698326730274,0.574338389086598,0.5821200920466408,0.5888423312641611,0.5943092338517343,0.5994836794221726,0.6051677288380216,0.6111093698617016,0.6164328355107555,0.620061533517358,0.6210402493055645,0.6187561908390722,0.6130625151246172,0.6042966119590816,0.5932038908628131,0.5807545072490194,0.5678651247898537,0.5550349628220925,0.5426706975907737,0.5314827087474634,0.5222526849136,0.515621301782286,0.5119473204003732,0.5112388233150362,0.5131561286637765,0.5170877600861141,0.5222951748339398,0.5281343891753703,0.5343438512806494,0.54122797234466,0.5489739383544127,0.5573282847396323,0.5657650870544616,0.5736506428761515,0.5803716371024382,0.5854440735009347,0.5885872070197284,0.5897693662504919,0.5892275151529665,0.5874562677273181,0.5851928604704453,0.5836038991760748,0.5834266976229229,0.5844587246708655,0.5859352277260682,0.5868621750635084,0.5862873199175315,0.5835033640134358,0.5781878772408259,0.5704738147204688,0.5609542373567851,0.5506253885955983,0.5406293624643614,0.5308755337798599,0.5212903415612055,0.5126766571875679,0.5060868064360238,0.5023493521778122,0.5017626059989871,0.5039872517119921,0.5080939773442583,0.5128133253698127,0.5169452297952606,0.519958794691962,0.522476821034069,0.5243163130170266
0.7213540202710284,0.7269575024494943,0.7319098268814903,0.735676565293832,0.7384190670424368,0.7407601858792834,0.7435699718172437,0.7477699257105344,0.7541564649640882,0.7632430876729575,0.7751221550338707,0.7893451309167563,0.8048223492321459,0.8198886092300759,0.8331368691300501,0.8438725425739125,0.8519951104208643,0.8578494983874715,0.8620743181768282,0.8654472736844568,0.8687272798995738,0.8724935960893018,0.8769820939008617,0.8819183587941611,0.886349615282818,0.8887637635524411,0.8880192041320877,0.8836949810759824,0.8760203311045609,0.8657618295316007,0.8540748885392617,0.842323196693249,0.831861213979284,0.8237840049045378,0.8186411675975268,0.8161186136718578,0.8146742202694359,0.8115222983000352,0.804510613228886,0.792884034990915,0.7769623972159365,0.7578104548592153,0.7369269172465391,0.7159514105009901,0.6963909451465269,0.6793649162684303,0.6653691564691863,0.6540582424127199,0.6442048031200079,0.6355558329993753,0.6284223706328007,0.6225593987296648,0.6174662442068042,0.6126393575894997,0.607742287772216,0.6026958020426165,0.5976838480910592,0.593079702751661,0.5892895404088756,0.5865135030637076,0.5845840625846707,0.5839343100478366,0.5851077684768838,0.5882239560877625,0.5930766925306166,0.5992323382169611,0.6061213110711836,0.6131252604208763,0.6196567162770196,0.625233210136817,0.6295458069916687,0.6325222464571301,0.6344246986174984,0.6357253704581212,0.6363347168563089,0.6357694437132622,0.6335035521286896,0.6292187390297518,0.6229415592029691,0.6150788241365608,0.6063434416342379,0.5975759268600656,0.5894586047521034,0.5821230419501691,0.5749889309346796,0.5681220736391523,0.5622852988585151,0.5583819742580524,0.5571248422395363,0.5588180576484059,0.5632586784314575,0.5697515258936764,0.5772434906015056,0.584571379884422,0.5908282477876138,0.5958445521400293,0.6005803461133684,0.6059036741630884,0.6115970068216698,0.6167752806694665,0.6203207367338258,0.6212176280414203,0.6187855390805632,0.6128147006091827,0.6035967044650403,0.5918599694781305,0.5785982997690985,0.564805046134757,0.5511501754907976,0.5382740916302691,0.527049620114251,0.5183215134123236,0.512691891130261,0.5103881314550298,0.5112165963103051,0.5146006125424726,0.5197042924719155,0.5256378773373339,0.5317527276485602,0.5380064552710633,0.5448191434315551,0.5522061203188481,0.559897110682401,0.5674710275743335,0.5744566969467635,0.5804105221087221,0.5849873417283453,0.5879887705522889,0.589397263723019,0.5893957425906566,0.5883694438218336,0.5869194456027083,0.5861120183661408,0.5866061290920308,0.5881194918044178,0.5898365015309792,0.5907606978242024,0.5899926824297247,0.5869295874275858,0.5813847046585993,0.5736296348271634,0.564354900280971,0.5545577475979756,0.5452286447040136,0.5361140761359054,0.5271233507381538,0.5191117181130848,0.5132047747406165,0.5102908204521256,0.5106927650707537,0.5140521679864541,0.5193808322514382,0.5253259641513699,0.5306102460339424,0.5346731208319089,0.5382001875935072,0.5410619427264676
0.7144764964353554,0.720266962914137,0.725345245399402,0.7291225242977051,0.7317082306628678,0.7336973364749912,0.7359672504839274,0.7394846513635498,0.7451226502406789,0.7534872873596442,0.7647545239946698,0.7785168248473424,0.7936408237876843,0.808374673953666,0.8213130978521415,0.8317711599275515,0.8396521561219987,0.8453002280243384,0.8493503079691743,0.852574309370471,0.8557248440369983,0.8593752601192888,0.8637577498960729,0.8685969940645152,0.8729403679320236,0.8751501604566567,0.8739237847166512,0.8688659197106303,0.8603461007017822,0.8493120365051259,0.8370844092972937,0.8251385402871548,0.81486682917814,0.8073268531410829,0.8029710689446099,0.8013630944381701,0.8008692749327881,0.7987497324918155,0.792921929470487,0.7826181746809746,0.7681004572550271,0.7503630812889516,0.7308456751013878,0.7111551425628623,0.6927982152288218,0.6769234894020918,0.6640737096334071,0.6539474014369563,0.6453203605033183,0.6377951848768063,0.6314981417379599,0.6260749750044212,0.6209987169257948,0.6158191839498467,0.6103207107972938,0.6045909652081328,0.5989969095265003,0.5940716544648352,0.5903101636764057,0.5878731437585968,0.5863742101270456,0.5859858671083276,0.5871095230606531,0.5898214183820767,0.5939485275649843,0.5991442746432641,0.6049572018571522,0.6108958119256416,0.6164848593685046,0.6213166505538475,0.6250964401687635,0.6276820108195148,0.6292309797157019,0.6303958428986861,0.6312617800109199,0.6313854120699692,0.6301786018242912,0.6271903325859591,0.6222763550149069,0.6156664411495264,0.607921664525797,0.5997880114503154,0.5919414999108508,0.5846273272081096,0.577493080713824,0.5707532987593079,0.56519245941551,0.5616644883623987,0.5608004606765381,0.562821722322041,0.5674627739704524,0.5739983228177409,0.5813810365996435,0.5884837662492373,0.5944504069984725,0.599153910366482,0.603578795817487,0.6086313001042528,0.6141113688746658,0.6191284517000251,0.6225425362140335,0.6233060014058807,0.6207024976035851,0.6144894805346931,0.6049347938998725,0.5927586043389285,0.5789682294522952,0.5645989392968739,0.5504396747329683,0.5373208109846883,0.5262390507120724,0.5180774649718088,0.5133924036843869,0.5122929435382206,0.5144149891561169,0.5189886816895081,0.5250011166280192,0.5314490515734065,0.5376912359312409,0.5438717003905921,0.5505143289688382,0.5575027390184121,0.5645540432731131,0.5713290401722273,0.5774848883699203,0.5827143911094514,0.5867867253903931,0.5895753643841473,0.591080657743816,0.5914468755436116,0.5909716093292379,0.5901347377201378,0.5898868496927305,0.5907932485488209,0.5925058739459212,0.5941853152844827,0.5948623662097172,0.5937132930215288,0.5902483269127348,0.5844127646084198,0.5765997316466163,0.5675735239987111,0.5583106874360182,0.5496436720109594,0.541183109307041,0.5328345072227813,0.525490024025673,0.5203206771702785,0.5182457244531795,0.519591785224766,0.5239729442463483,0.5303474011474322,0.5372971665183258,0.5434906180928905,0.5483568524649236,0.5526506377944007,0.55631491559589
0.7079797420002688,0.7137656997447122,0.7188002520307099,0.7224642697129103,0.7248388798506442,0.726503794092406,0.7283408092873533,0.7313421184187257,0.7364238239230367,0.7442438089498166,0.7550252483091191,0.7683841154544816,0.7831636712183873,0.7975415877210908,0.8100634437730971,0.8200276863431252,0.8273452716978391,0.832386127164283,0.8358211795548712,0.838462815336959,0.8411012542906865,0.8443381334816984,0.8484172864693577,0.853052235210326,0.8572488565608448,0.8592889759123206,0.8578266983663363,0.8524996664441352,0.8437475345215241,0.8325908448143704,0.8204029517703553,0.808677769472726,0.7987884412578566,0.791741922821084,0.7879252264259242,0.7868480913004529,0.7868738318005044,0.7853862359770822,0.7804295536045386,0.771265000664699,0.7581153900625203,0.7418977139178808,0.7239607322112185,0.7058270852428854,0.6889405104623144,0.6744178771587941,0.6628064763158447,0.6538456005489377,0.6463655273451873,0.639826022870472,0.634141519188329,0.6288602456418785,0.6234621936141604,0.617590204242348,0.6111837865973514,0.6045196812134823,0.5981540909872843,0.592771014667893,0.5889345869052361,0.5867446821966578,0.585589645114052,0.5854279027518178,0.5865606911530852,0.5890318997930627,0.5926881176664456,0.5972394908339089,0.6023132626999134,0.6075030458837759,0.6124103319803712,0.616679911136616,0.6200299384483874,0.6222761740623581,0.6235199250168829,0.6245853472346711,0.6257102312139287,0.6264845610983868,0.6262623589082819,0.624472319748944,0.620816071716803,0.615363816861062,0.6085401226387803,0.6010058409522399,0.5934316686533246,0.5861650468875197,0.5790615382937514,0.5724863727736866,0.5672664640166508,0.5642292588946622,0.5639400854123172,0.5665396572665236,0.5716857375235894,0.578595303684972,0.5861909485484349,0.5933474427815978,0.5992420474521519,0.6038064284689749,0.6080853813442265,0.6130072567400602,0.6183778492185142,0.623304044856448,0.6266373792956024,0.6273180247678198,0.6246165577794758,0.6182784685708343,0.6085630696838614,0.5961881018632563,0.5821666373774861,0.5675502013828454,0.5531905040686578,0.5400289091299729,0.5291307704561428,0.5213938011809205,0.5173381267864541,0.516994528055245,0.5198916085185704,0.5251418524727648,0.5316278515407385,0.538283471004043,0.5444801910340183,0.5504845434253546,0.5568912636003935,0.5635107415619414,0.570055238253586,0.5762374606386739,0.5817940984904818,0.5865026939763068,0.590204268736973,0.5928185561802172,0.5943585528458648,0.5949447241233633,0.594816920731082,0.5943699490865877,0.5944438286193586,0.5955077278198619,0.5971665707266306,0.5985854667839883,0.5988457010529991,0.5972118823757767,0.5933055390721188,0.5871872516049285,0.5793449005603919,0.570588200999618,0.5618551360093642,0.5538287331325081,0.5460107197345402,0.538304371023417,0.5316192185962281,0.5271441753606324,0.5258069925734661,0.5279272437452546,0.5330955275044255,0.5402344787649771,0.5478876519307757,0.5546966663775447,0.5600945317979469,0.5648948527904271,0.5691263718295455
0.7024196281159727,0.70803493252762,0.7128769362224298,0.7163176735389227,0.7184297366078828,0.7197886751691847,0.7212786082963607,0.7239007615207059,0.7285858341176621,0.7360093068721194,0.7464104292122073,0.7594139960282122,0.7738566784639687,0.7878589073168284,0.7998740509943584,0.8091619984930272,0.8156450306931713,0.8197405448071082,0.8221899034268311,0.8238848557916758,0.8256905209575622,0.8282652042966339,0.8318780124075543,0.8362220799264994,0.8402263788765163,0.8421303917526172,0.8406445903753028,0.8354458538101248,0.8269837888230678,0.8162605257081699,0.8046063974446604,0.7934547442501121,0.7841110633664461,0.7775208318605806,0.7740324437062652,0.7731597849608165,0.7733376914749394,0.7721175133597267,0.7676903283034154,0.7593713967823742,0.7473660547012316,0.7325248695151171,0.7161026566729389,0.6995196674912473,0.68412706711144,0.6709752096817817,0.6605857060032576,0.6527262808605524,0.6462987332356511,0.640621128369427,0.6353900616155492,0.6300711763278841,0.6241748337588935,0.6174587271363439,0.6100311641003172,0.6023596148262144,0.5951797871388821,0.5893085800098583,0.5853599503574778,0.5833621739023961,0.5824944187825247,0.5825670467268338,0.5838323046457395,0.5863136786721244,0.5898594316117588,0.5941977859309635,0.5989841071336802,0.603845146659628,0.6084136820453815,0.61235866248803,0.6154090512283903,0.6173721941196212,0.6183493793508532,0.6193068332145882,0.620596960799405,0.6218350305978696,0.6223323824477958,0.6214282605779431,0.6187094636132171,0.614126791309597,0.6080023203545318,0.6009323308642559,0.5935819535148585,0.5863735079934582,0.5793233050046589,0.5729419723779553,0.5681170847208372,0.5656700224078065,0.566113722298276,0.5695096566590507,0.5754270384960564,0.5830007428629902,0.5910923593419648,0.5985493799449808,0.6045667439555213,0.6091482853057121,0.6134318845146358,0.618364074205745,0.6237514726521588,0.6287002195014734,0.6320601878938885,0.6327693447020593,0.6300959253587626,0.6237832675229019,0.6140894660765844,0.6017316793234933,0.5877242895531509,0.5731220882567255,0.5587911051432626,0.5456999978195218,0.5349273629326666,0.5273683077112566,0.5235253618870022,0.5233999693104477,0.5264838493516952,0.5318519122643123,0.5383556258328341,0.5449141849879111,0.5509114387615559,0.5566646139359278,0.562801714813415,0.5691157092948599,0.5753244365160253,0.5811639661107242,0.5864031041022425,0.5908523446353481,0.5943794811390746,0.5969203998635135,0.5984905157039067,0.5991974483036664,0.599252512541218,0.5990061192572598,0.599206456347731,0.6002331339859528,0.6016632999942336,0.6026871690981059,0.6024515274114158,0.6003124270158053,0.5959929068410438,0.5896473175262436,0.5818308375126335,0.5733734415961248,0.5651634707229634,0.5577511190105611,0.5505500482479813,0.5434550024844785,0.5373734267080654,0.5334920209275241,0.5327338561374159,0.5354102348088526,0.5410995789716732,0.5487114497182327,0.5567787572957051,0.5639399647772848,0.5696394210774555,0.5747308652688695,0.5793346913495393
0.6974050937056742,0.7027725006653022,0.7073535104673812,0.7105204364189442,0.7123459309682916,0.7134058906810161,0.7145848568532641,0.7168852915254131,0.7212399146096986,0.7283264386391114,0.7383868273300114,0.7510484843052616,0.7651494529321913,0.7787603115809872,0.7902260380825495,0.7987592174212428,0.8042948122351911,0.807306209471153,0.8086182059254481,0.8092168572740391,0.8100565524968677,0.8118634390924578,0.8149367221000725,0.8189460123245574,0.8227298205939925,0.8245048143028755,0.8230829344133869,0.818183945745118,0.8102415463191477,0.8001991171687054,0.7893012046855612,0.7788847767757295,0.7701646583748579,0.7640187860110651,0.7607677472831181,0.7599548933550122,0.7601205101752031,0.7589985742145513,0.7549277902822691,0.7472852443088613,0.7362690642557675,0.7226725611758344,0.70766126551457,0.6925526324614879,0.6785994115905657,0.6667756780111047,0.6575664373314276,0.650759914752048,0.6453292497972728,0.6404505278144575,0.6356050068544825,0.630184222662835,0.6237384817671006,0.6161466138168611,0.6076872518085001,0.5990142413878047,0.5910334404381417,0.5846831312776963,0.5806171623796395,0.5787898041132866,0.5781848340336398,0.5785045281791975,0.579981460525473,0.5826258506503917,0.5862773637575086,0.5906597225321872,0.5954273622691739,0.60020905410252,0.6046422878747557,0.6084030284640772,0.6112292471553656,0.6129391507245461,0.6136661087396944,0.6144987543528135,0.615879863371175,0.6174455628384266,0.6184750471260755,0.6182392659551291,0.6162360609235866,0.6123237537255114,0.6067443382360215,0.6000431809328852,0.5928795522685056,0.5857316561087892,0.5787452624549337,0.5725712385471103,0.5681659673554365,0.566353050421915,0.5675989845877889,0.5718864800490843,0.5786910506735296,0.5870551967702141,0.5957662581190393,0.6036317489419705,0.6098576343759659,0.6145252375122837,0.6188810066293776,0.623892325362092,0.6293670371830948,0.6344121714233462,0.6378775861436672,0.6387004377000883,0.636147513904997,0.629960037534384,0.6203939998969776,0.6081648986798426,0.5942863490090918,0.5798141387929874,0.5656090659028881,0.5526215704063446,0.5419158408394461,0.5343773124227785,0.5305035368080405,0.5302944272888025,0.5332435429194112,0.5384302386004116,0.5447127942258283,0.5510190772541923,0.5567434885130116,0.5622149205690692,0.5680730661284454,0.5741210630728882,0.5800877282083068,0.5857190535177417,0.590793367298931,0.595127921614613,0.5985947047885835,0.601130013984013,0.6027450833382995,0.6035386940938053,0.6037079865126415,0.6035800681400949,0.6038236151912559,0.6047333145464376,0.6058668126209819,0.6064479568104869,0.6056943573023884,0.6030528892783926,0.5983422835228469,0.5918004719031359,0.5840373653517006,0.5758917236986375,0.5681986599204641,0.5613842296204605,0.5547809714160116,0.5482691470264791,0.5427446110521474,0.5393842242069634,0.5391026545015083,0.5422052744410798,0.548267661707642,0.5561990117186076,0.5645354777301095,0.571923756274115,0.5778206293309485,0.5831077385970942,0.5880004815750496
0.6932889585408758,0.6983600029241932,0.7026558164301536,0.7055506500659994,0.707106299127109,0.7078819069889424,0.7087457593770214,0.7106881945109612,0.7146362775358509,0.7212701487647093,0.7308409854145007,0.7429900641368213,0.7565702211698558,0.7696376793149281,0.7804893131837443,0.7883168228206738,0.7930612930917383,0.7952221831900873,0.7956626367729839,0.7954123944775212,0.795466936591573,0.796584243182854,0.7990781312089343,0.8026086209895789,0.8059753788724147,0.8074240548184889,0.8058860033927396,0.8011439759810824,0.7936330729868486,0.7842462047615613,0.7741385723760734,0.7645349380768315,0.7565344076445938,0.7509179270413799,0.7479537735000059,0.7472061228069455,0.7473419276947393,0.7463233307187701,0.7426580463687287,0.7357764058625731,0.7258457903078437,0.7135741011544049,0.70001395445738,0.6863658723613801,0.6737818968073456,0.6631691052234245,0.6549929829617492,0.6490806751001814,0.6444866668733547,0.6402408415089705,0.6356091348344995,0.6299169180499685,0.622764745943828,0.6141610968969533,0.6045583145826281,0.5947944599959756,0.5859380494548744,0.5790379894871998,0.5747775764728844,0.5730325926427005,0.5726014829182531,0.5731184847563613,0.5748329305172523,0.5777573336373537,0.5817189211886508,0.5864157726655734,0.591468097884713,0.5964662033115281,0.6010124589147238,0.6047592887768645,0.6074429130899385,0.6089133749689063,0.609385691279752,0.61006952604064,0.6114821886596796,0.6132784556025683,0.614712994630776,0.6150018891446084,0.6135715007154864,0.6102048295390801,0.6050786398665488,0.5986951466475645,0.5917073284636187,0.584636003505835,0.5777345557640564,0.5717849257913786,0.567803034975353,0.5666059744906969,0.5686074934591685,0.5737110751370323,0.5813037877681144,0.5903462655947922,0.599565402116976,0.6077421218990463,0.6141005004122099,0.618794760120857,0.6231713877890325,0.6282413539967472,0.6338416167277844,0.639098450370627,0.642866191561676,0.6440701744237808,0.6419496367437902,0.6362078238815383,0.6270592023056732,0.6151855446719969,0.6015882555794305,0.5873491230843458,0.5733473931468791,0.5604781577984034,0.5497707252041326,0.5421031776202472,0.537986727673411,0.5374494192388267,0.5400208944400038,0.5448183819229128,0.5507327801634025,0.5567131902706399,0.5621573710613567,0.5673739752770263,0.5729822673945368,0.5787936257934166,0.5845483866587425,0.5900043538691153,0.5949503619262085,0.599212473019975,0.6026680522153055,0.6052553664192603,0.6069823926233607,0.6079384629540673,0.6083042962296968,0.608379858998155,0.6087386803625228,0.609569260100711,0.6103953348744057,0.6104695291892144,0.6090842921908359,0.605792252631231,0.6005287407083882,0.5936392136869854,0.5858106258744532,0.5779046558721334,0.5707001147318326,0.5644716778197776,0.5584383202428238,0.5524501103267689,0.5473874481932853,0.5444223163771948,0.5444722913243145,0.5478518855285732,0.5541489607111001,0.5622866823915437,0.5708144714412621,0.5783886101649973,0.5844703244832056,0.5899560942013635,0.5951942162197179
0.6911388351191742,0.6958213819201382,0.6998030693412579,0.7024659972065752,0.7038348278405389,0.7044107394855109,0.7050021678115334,0.706551815279778,0.7099604938363943,0.7159073183966254,0.7246667487387004,0.7359218464735847,0.7485747724883606,0.760753617904941,0.770845597894967,0.7780813022213976,0.7823936578061844,0.7842395849141549,0.7844183811116422,0.783887149666818,0.7835734985824178,0.7841844396249409,0.7860131008438903,0.7887417597225201,0.7912483144270089,0.79191801980972,0.789830536128624,0.7848735974066363,0.7775262453576623,0.7686577157081047,0.7593357792890398,0.7506471617110198,0.743526407491146,0.7385964306989136,0.7360181433882472,0.7353524641997445,0.7354304849069891,0.7345345134415172,0.7313822144876401,0.7254360081819504,0.7167789366649191,0.7059736869660844,0.6939110658635912,0.681648281083486,0.6702375641567261,0.6605440341392317,0.65305437799009,0.6476744551458441,0.6435583576794934,0.6395989198821733,0.6348699889112278,0.6286544045780512,0.6206176949456093,0.6108990162936913,0.6001100598639285,0.5892449582246915,0.5794980622847117,0.5719919121811684,0.5674144158155061,0.5655648696565617,0.5651043279846072,0.5656843916423567,0.5676387182803754,0.5710143431915201,0.5756228388139688,0.5811020200215551,0.5869773230869154,0.592725782185487,0.5978383777977978,0.6018840225202685,0.6045739481288662,0.6058276363941899,0.6060355320234138,0.6065219362441441,0.6078471837027861,0.6096792528614027,0.6112629684167834,0.6117878929113166,0.6106440503827387,0.607574880275762,0.6027207414506556,0.5965583383175708,0.5897320353627121,0.5827784615061453,0.5760135323308975,0.5703297910998579,0.5667822891878681,0.5661594387345035,0.5688082339230296,0.5745510764241327,0.582699036531726,0.5921561944551073,0.6016210777328721,0.6098787832050943,0.6161892507611467,0.6207683379423958,0.6250365788037492,0.6300859578892054,0.6358369239345454,0.6414772299566703,0.6458827534849652,0.6479518101648526,0.6468506837473005,0.642174673857158,0.6340179323674167,0.6229610002924193,0.6099650033247015,0.5961830955094092,0.5825579227600427,0.5698563238082827,0.559032878482462,0.5509629291862709,0.5462083029534109,0.5448832552965415,0.5466207880580004,0.5506399854345262,0.5559147578836803,0.5614394908324011,0.5666011448483231,0.5716256778293982,0.5770452834733263,0.5826657356079994,0.5882375972710425,0.5935359425595087,0.5983698335483854,0.6025862371593056,0.6060806683747783,0.6088033105811641,0.6107650812489007,0.6120463044603838,0.6128030706380845,0.6132887774375334,0.6139515764646359,0.6148370262933704,0.6154059335667702,0.6149233142701834,0.6127595741691926,0.6085930135608253,0.6025116149671161,0.595013676469027,0.5869072313056716,0.5791070883855788,0.5723351246505486,0.5666659795810429,0.5611449575732622,0.5555653366272327,0.5507862365621622,0.5479843541037505,0.5481018808992039,0.5514896745158253,0.5577766898675982,0.565925190947915,0.5745138877301852,0.5822113015557938,0.5884674635555536,0.594169466857093,0.5998695588473371
0.6910120024619197,0.6952152059613973,0.6988815986457994,0.7014136375008957,0.7027669966919461,0.7033302567378887,0.7037921079596683,0.7049958947898454,0.7077819759439269,0.7128173123576356,0.7204131122559644,0.7303291309717659,0.7415675358340332,0.7524411403581365,0.7615923028093727,0.7683612701952092,0.7726559678271194,0.7748099214111017,0.775437887072581,0.7752877266159244,0.7750898851626872,0.7754031592626112,0.7764580673833513,0.7779967672224001,0.7791132293684538,0.7784558890765702,0.7752754821601295,0.7696100538924944,0.7620343849652077,0.7534319158797442,0.7447939348566,0.7370486681530511,0.7309173021519119,0.7267997570651716,0.7246869852653959,0.7241047252018405,0.7240818196250518,0.7233126204993181,0.7207625316274896,0.7158970191807289,0.7086546045306176,0.6993882959408966,0.6887787162647148,0.6777188060123535,0.6671705315517308,0.65799335717162,0.6507447373570264,0.6454522221334884,0.6413827878056318,0.6373336578616765,0.6322534565254264,0.6254204997945585,0.6165706195670505,0.6059467069410743,0.5942656054382756,0.5826049647679356,0.5722068565365444,0.5642009831740066,0.5592453865167551,0.5570862192374636,0.5563471364590916,0.5567984971453529,0.5589194692999525,0.5628262772369776,0.568319039545943,0.5749492460144598,0.5820964419255112,0.5890560531884683,0.5951353972167809,0.5997601711467301,0.6025905800204742,0.6036481025285585,0.6035856305460449,0.6038265368209484,0.604935985170818,0.6065886398774059,0.6080361057033107,0.6084741729744715,0.60729718220088,0.6042499638999665,0.5994711333787967,0.5934309561526642,0.5867631638606153,0.5799884959982645,0.5734334677151361,0.5680768152390636,0.564988193204333,0.564901463684452,0.5680794640262412,0.5742614112126614,0.5826968924325162,0.5922627585419857,0.601667167854962,0.6097360719616921,0.6157861638795551,0.6200814722263172,0.6240785670029891,0.6289707511014582,0.6348147192171365,0.6409109615746057,0.6461876057516853,0.6495159489163717,0.6499547588469511,0.6469286818354765,0.6403332554835257,0.6305755325493826,0.6185394285349624,0.605484037662981,0.5924532261788636,0.5800069310103932,0.5689830272522228,0.5602576906793514,0.5544814101264183,0.5519142061593594,0.5523617677845594,0.5552121869943131,0.5595744232801003,0.5645136503289235,0.5693930249661137,0.5742914454480919,0.5795791318539095,0.5850293566482448,0.5903977805234981,0.595485274624445,0.600139385486351,0.6042513889012875,0.6077593613991541,0.6106467797503482,0.6129416312824011,0.6147171829283092,0.6160911820194449,0.6172385041147403,0.6184520209142543,0.619612684490171,0.6200890345349146,0.6191353165873411,0.6161886249669158,0.6110591404500604,0.6040098794512215,0.5957272176066588,0.5871802811619591,0.5793687886529724,0.5729663112320523,0.5678135052479557,0.5627350026980025,0.557445581574555,0.5527793553740373,0.5499279032268183,0.5498761658772712,0.5530345380510638,0.5590981373227177,0.5670888015999764,0.5756280183450598,0.5833986763667889,0.5898243909046734,0.5957625957148507,0.6020279702727533
0.6923439489347082,0.696014842813759,0.6994112618352014,0.7019737761153734,0.7035593125057754,0.7043879394643756,0.7049642431732032,0.7059736568073263,0.7081539842252806,0.712141198238825,0.7182909309236566,0.7264742234300737,0.7358508225982229,0.7450327168239788,0.7530661353819413,0.7594645722655717,0.7640957360823967,0.7670982515640935,0.7687946063111906,0.7696016697577384,0.7699377589581765,0.7701266734190115,0.7702990307216412,0.7702901338879972,0.7695325760428959,0.7670394721445266,0.7622389970596417,0.755354204963263,0.7471040957282411,0.7384277376853949,0.7302604142413999,0.7233659713424242,0.7182201633977388,0.7149499436996304,0.7133239644145956,0.7128000464686145,0.7126214010649178,0.7119561742577869,0.7100373232726933,0.7063032467953907,0.7004971279211472,0.6927134012613116,0.68339061285733,0.6732508840135178,0.6631857905563519,0.6540890345047558,0.646635629182869,0.6410076505531237,0.6365869571694968,0.6321501816281049,0.6266284673825793,0.6193427786844171,0.6100885562170109,0.5991537784219152,0.5872661158149391,0.575473344441759,0.56495280614276,0.5567532335617276,0.5514667048516756,0.5488319075679905,0.5475787225769428,0.5476861801170304,0.5498113226624007,0.554165811917197,0.5605516923903784,0.5684305939648284,0.577014871664381,0.5853833205676336,0.5926169392274484,0.5979592088621872,0.6009980109846641,0.6018713124886452,0.6015426498823929,0.6015100501497925,0.6023094080336417,0.6036150202558282,0.6046993256260416,0.6047921693628998,0.6033269400284651,0.600085655773846,0.5952340729034898,0.5892533027760775,0.5827640682388346,0.5762440343054818,0.5699849454924931,0.5650304574052176,0.5624421309979436,0.5628757093264511,0.566494264565715,0.5729510939296897,0.5814472690023097,0.5908581162676824,0.5999354802378103,0.6075786124220788,0.6131796555109823,0.6170393696047489,0.6206067963243953,0.6251660051142016,0.6309423686037194,0.6373967122852063,0.6435505917992788,0.6482694195862556,0.6504988982402485,0.6494609770400168,0.6448013131967729,0.636698077113773,0.6259200419242928,0.6138404414409806,0.6016164690976475,0.5895423801273809,0.5783064058725255,0.5687871578990281,0.561750012945647,0.5576430149420963,0.5564942640756353,0.5579092602285841,0.5611704191048013,0.565433175313253,0.5700285838017943,0.5748451174829144,0.580026932864252,0.5852791050940435,0.5903535885182472,0.5950868906241971,0.5993900553274482,0.6032305696018296,0.6066235109414768,0.6096159571678079,0.6122733207422528,0.6146662183969389,0.616857271023248,0.6189002328376761,0.6209156860948583,0.6226248960126021,0.6232867940468059,0.6221166907795991,0.6185917992184298,0.6126360702848651,0.6046835940638395,0.5956181541127016,0.5865898198011187,0.5787084216469734,0.5726165990238453,0.5679212714440833,0.5632133064647952,0.5581236842864787,0.5534621006497885,0.5504403005271992,0.550094871536357,0.5529066027142159,0.5586459001475487,0.5664030343224159,0.574846883183956,0.5826740735621571,0.5892749360302582,0.5954659862137078,0.6023475833666487
0.694339131736592,0.6974855044944994,0.7007075304971394,0.7035033227713341,0.7056091882155014,0.7070300728659723,0.7080299261737728,0.7090818334980806,0.7107782485626939,0.7137008131766268,0.7182501713620636,0.7244357778896735,0.7316292750341217,0.7388362229846892,0.745608945135911,0.7516766610780478,0.7568574079440099,0.761046761033823,0.7642033877694896,0.7663315254565252,0.7674604431696807,0.7676208274453384,0.7668181973362337,0.7650031678759525,0.7620285944836495,0.7573296790167183,0.750499052049915,0.741961499691295,0.732615255313189,0.7234916881256284,0.7154975513501111,0.7092429265045541,0.7049505209382607,0.7024509932244127,0.7012596167232003,0.7007393479869511,0.7003422777776035,0.6997274311759044,0.698391548985182,0.6957205385726897,0.6912319653642346,0.6847389053770171,0.6764303861672151,0.6668683634144829,0.6569008561588889,0.6474920851355201,0.6394688753171797,0.6331836431019803,0.628122102497314,0.623136908788817,0.6172735259726019,0.609942542589595,0.6009737878471303,0.5906182203111756,0.5794951137948753,0.5684870422066391,0.5585788760774819,0.5506445149030107,0.5451782324549012,0.5419734025991542,0.5400276500018216,0.5395886440393145,0.5414850455988359,0.5460363320598697,0.5530675147681406,0.5619717514448458,0.5718109255271615,0.5814548539299758,0.5897574384616573,0.5957711947307582,0.5990000950453263,0.599690625050516,0.5991136201505621,0.5988129505266081,0.5992711054155961,0.6001561688352423,0.6007693265464868,0.6003906757986582,0.5985144334840146,0.5949809862601524,0.5900017771802188,0.5840785961438891,0.5778179447302456,0.5716371683162401,0.5657649635920456,0.5612955732386743,0.5592665881237102,0.5602391232514253,0.5642650432036274,0.5709097093829687,0.5793332531537616,0.5884268491329839,0.5970082560957485,0.6040721365525837,0.6090986816883017,0.6124188065914017,0.6154326806153738,0.6194732794006272,0.6249392564913108,0.6314858671234069,0.6382730730182137,0.644201025735554,0.6481290154878493,0.6490840981192275,0.6464506730590366,0.6401517374581185,0.6308094476471705,0.6198880075628515,0.6086408038829039,0.5970677838295012,0.5856927107849891,0.5753945469108777,0.5670617850074722,0.5613455368762595,0.558514849034003,0.5584116542458827,0.560507365613177,0.5640570175147591,0.5683593033729495,0.5730986189114331,0.5781554975729136,0.5831287140133634,0.5877543041147041,0.5919160911571385,0.5956142881368957,0.598928926030941,0.6019898533723402,0.6049422016448346,0.6079115274132254,0.6109726866000778,0.6141146071713184,0.6172249929911046,0.6202515110744166,0.6227892650141759,0.6239847016381996,0.6229871517055502,0.6192748687008307,0.6128461976621896,0.6042725188811922,0.5946147307619092,0.5851989581943517,0.5772561280636171,0.5714247293172292,0.5671133937110665,0.5627066270764607,0.5577643747272141,0.5530785981117481,0.5498814964377682,0.5492578095500965,0.5517523780331568,0.5572044396843536,0.5647649288604658,0.5731451159411421,0.5810520045486042,0.5878436400110092,0.5942990345367241,0.6017832055617334
0.6962628533611213,0.6989627784829565,0.7021479731022481,0.7053912459499804,0.7082976605489425,0.7106284198523765,0.7123684746399829,0.7137386171799245,0.7151510875368812,0.7171097933208243,0.7200542833519071,0.7241478069878083,0.7290149329281284,0.7341117328908762,0.7395334331548016,0.7452395305077553,0.7509956009229063,0.7564392869214978,0.7611422738207745,0.7646700945513257,0.7666381193915266,0.7667650123662971,0.7649229003412282,0.7611846167171685,0.7558486728819444,0.7487756750555464,0.7396933952078457,0.7292238577249729,0.718459563619659,0.7085494861792062,0.7003999865612573,0.6944924890216089,0.6908144173581265,0.688907230272734,0.6880284040612508,0.6874303634275115,0.6867484965255904,0.6861022998948304,0.6852264217019528,0.6834383918698743,0.6800255740237067,0.6745270518631719,0.6669001809042947,0.6575719790032313,0.6473756270910574,0.6373714694046637,0.6285536064687399,0.6214407086053553,0.6156011662874303,0.6100628722646309,0.6041141269684923,0.5972940781860979,0.5894315165325487,0.5806521097830668,0.5713464057265194,0.5621012399577368,0.5535914873768708,0.5464346350084553,0.5410065995204034,0.537219756525933,0.5344879196681668,0.5333454267440146,0.5347496147520239,0.5391238862672215,0.5463409769851278,0.5557684087400805,0.5663677113482039,0.5768493255287795,0.5858797893314237,0.5923445095106247,0.5956638446312464,0.5961647212860274,0.5953724412857233,0.5948485478437332,0.5950130355954171,0.5955236629536812,0.5957092599511236,0.5949024660484765,0.5926609728992194,0.5888875656314894,0.5838417367973402,0.578047825622905,0.5720970820734261,0.5663434033891628,0.5609468390364349,0.5570474256499152,0.5556526047636844,0.5572219572105127,0.5616912570876097,0.5685357514283791,0.5768765791502733,0.5856252305637057,0.5936727087577173,0.6001161462783007,0.6045288268568808,0.6072701750329876,0.609661787170609,0.6130217065550423,0.6178982910358761,0.624156263503584,0.6311339031066657,0.6378181432314216,0.6430354952900464,0.6456633711387441,0.6448547243573953,0.6402847602004761,0.6324093848445727,0.6227338973041207,0.6125646505758031,0.6016142995519856,0.5902456804817101,0.5793332564523759,0.5698773454051503,0.5627178649837035,0.5583493377694655,0.556836401991998,0.5578304167527196,0.5606838942490385,0.5646708255242255,0.5692903518302627,0.5741553604137091,0.5787245622373323,0.5827074715593863,0.5860441196920887,0.5888480501186687,0.5913437118567106,0.593810643607803,0.5965228244949675,0.5996881614569624,0.6033909180639622,0.6075310784494441,0.6117910181126263,0.615960051739159,0.6195610979344146,0.6216406347827471,0.6212604044699622,0.617856622941695,0.6114473213654534,0.6026870258440049,0.5927672693271195,0.5831624446993932,0.5752206932154919,0.5696054736253517,0.5655917439374262,0.561419404157035,0.5566069466205664,0.5519381333640792,0.5486621401487141,0.547898034083257,0.5502343030148142,0.5555563285831681,0.5630556939675004,0.5714707016316702,0.5795143866550029,0.5865210041123277,0.5932463826680754,0.601262684245885
0.697633938362254,0.7000323211410723,0.7033438884965569,0.7072262103493759,0.7111556552617503,0.7146441791304772,0.7173854292906202,0.7193301564901768,0.7206909498151027,0.7218760683740062,0.7233525205363047,0.7254385415176321,0.7280316820166703,0.7310473316375264,0.7350890576063646,0.7403302727823481,0.7464892340471629,0.7529657821143123,0.7589748392719144,0.76367672537652,0.76630456352677,0.7662885190674525,0.763377248908434,0.7577560936977122,0.7501341461560974,0.7407466295175106,0.7294173864757996,0.7169415376092984,0.7045976182301731,0.6936609065047133,0.6850602771034949,0.6791821315751823,0.6758170475034219,0.6742532631173106,0.6735130767168838,0.6727369561561626,0.6717040337700885,0.6709242639996352,0.6703281082882782,0.6691611754605182,0.6665023793450627,0.6616520744520817,0.6543745851662821,0.6449965006792958,0.6343600834782361,0.6236318441682492,0.6139668330263977,0.6060276455081667,0.5994388465433117,0.5934835021339131,0.5877915200222186,0.5820520651978668,0.576056171631336,0.5697286198456571,0.5631357579306073,0.5564715262569386,0.5500181778144696,0.544085326183858,0.5389243106853928,0.5346203543147412,0.531105430223129,0.5291731849795873,0.5298394032558913,0.5336129386983431,0.540437733715296,0.5497101777273711,0.5603651227729868,0.5710337110046126,0.5802676591290682,0.5868353959712242,0.5900865836080394,0.5903871985692444,0.5894272434135082,0.588764598950041,0.5887635565879635,0.5890689743313984,0.5890281883808921,0.5880123697805142,0.5856266310610357,0.5818199633954105,0.5768868915606264,0.5713663339505977,0.5658347339940233,0.5605934820620532,0.5557529938448388,0.5525050162308405,0.5518305306849681,0.554091487542744,0.5591094006764127,0.5662682091230303,0.5746445860098226,0.5831624710883065,0.5907762163901752,0.5966769545981611,0.6005269877305728,0.6027191939293798,0.6044844520141587,0.6070544004282061,0.6110819706299537,0.6166351216109699,0.623257155527268,0.6300743166085728,0.6359488355462222,0.6396814267046876,0.6402569387461147,0.6371416747472033,0.6306210760439817,0.622176126152155,0.613104797703495,0.6028721271068607,0.5917010196284055,0.5804539559039449,0.5702154396917727,0.5619734789762091,0.5564030093283452,0.5537489010148543,0.5538114389696513,0.5560280266394723,0.5596617225177714,0.5640738941673082,0.5686394051950994,0.5726563825601118,0.5757995632461428,0.5780715256944778,0.5797152812112686,0.5811218918157696,0.5827444405420686,0.5850071880761076,0.5882153730936951,0.5924669408741167,0.597562860578112,0.6029541740083136,0.6082975331281895,0.613106301871556,0.6163502909897935,0.6169917338463057,0.6143861490897001,0.6085149815440464,0.600051657428838,0.5902577515246459,0.5807101531404435,0.5728578596015714,0.5674150383111228,0.5636025872323983,0.5595979980043346,0.5549172550740904,0.5503499335783512,0.547155035378636,0.5464647145998307,0.5488822915432671,0.5543067588732495,0.5619418631730922,0.5705320774356877,0.5787904110582938,0.5860403451350183,0.59303699041048,0.6014786643072063
0.6983181350282395,0.7006111581855815,0.7042161853369083,0.7088761507677334,0.7139532419820529,0.7187292884728642,0.7226231008125252,0.7253248580789161,0.7268475285380265,0.7274952934242085,0.7277490341356126,0.7280687923685314,0.7286201246256393,0.7297359986759099,0.7324282710128734,0.7370404649708437,0.743255461208237,0.7502878955049698,0.7570733748108744,0.7624547528151995,0.7653652840846443,0.7650085662936551,0.7610360094365548,0.7537204748773926,0.744092381825319,0.7326662688525413,0.7193213048946699,0.704986153510974,0.6910956854760005,0.6790403929517294,0.6697842252444247,0.6636537564663393,0.6602942366854512,0.6587974650598724,0.657996893286009,0.6569344303963609,0.6554882877859683,0.6544632217563834,0.6539359184898038,0.6530898220705652,0.650839466016267,0.6463022844294192,0.6391013380717165,0.6294988912735754,0.6183607039645256,0.6069511066816607,0.5965591903024875,0.5879554168507356,0.5807944525241433,0.5746577604391978,0.5695629540174844,0.5653489466141426,0.5617385497901795,0.5584100021114147,0.5550568053026577,0.5514378542296935,0.5474145797660549,0.5429787598803107,0.5382674453939493,0.5335687975859965,0.529365032379649,0.5266402602109713,0.5263860256499031,0.5291667310053506,0.5350151060695586,0.5434117981785558,0.5533473729640728,0.5634680131989201,0.5723014820846403,0.5785668569076102,0.5815660341917682,0.5816585037715336,0.5805904860156251,0.5799068204265209,0.5799369909654012,0.5803127516559873,0.580382932028583,0.579529441058839,0.5773714980366347,0.5738707725940971,0.5693295952074144,0.5642850846408562,0.5593002792263699,0.5546487158370635,0.5504313867292537,0.5479071156392945,0.5480430373922759,0.5511174438136305,0.5568457973876122,0.5645194662569338,0.5731599968732154,0.5816834931300159,0.5890831923009274,0.5946214033871422,0.5980374614148849,0.5997685175830385,0.6009635527185949,0.6027051606822442,0.6056937503573813,0.6101741430026977,0.6159028782734618,0.6221874846944303,0.6279950700382871,0.6321350607807548,0.6335088035224464,0.6314353662829427,0.6260423507678299,0.6187180513195905,0.6106851793891187,0.601224774686934,0.5904532556741291,0.5792129352594908,0.5686331576198635,0.5597919273011676,0.5534785183237376,0.5500562004687636,0.549426640162949,0.5510921500401835,0.5543229673208141,0.5584085469513356,0.5625440478086887,0.5658642664866772,0.5680066065926321,0.5690378627073204,0.5693359850942902,0.5694654535798808,0.570060371132848,0.5717024396441067,0.5747990085116007,0.5794637708342733,0.5853947705286444,0.5918055178403531,0.5982511588352012,0.6042912135413789,0.6088483979245467,0.6107861584509786,0.6093530255748681,0.6044473341226081,0.5967013191048736,0.5873843164701441,0.5781233153506209,0.5704416565309364,0.5651210623255165,0.5614061654046835,0.5574985450661116,0.5529538690278722,0.5485803420570154,0.5456396105611628,0.5452543795492979,0.5480107731758596,0.5537875890467492,0.5617687556713544,0.5706835853762323,0.5792376423508463,0.5867592950574259,0.5940255794221244,0.6027770120385318
0.6985227395829839,0.700930313243338,0.7049766082640305,0.7104799935243115,0.716712285809484,0.7227652390395232,0.7278252603967493,0.7313564438288305,0.7331924637847601,0.7335365902942361,0.7328703230099503,0.7317705537365133,0.7306421487222458,0.7301514355689498,0.7315720186318395,0.7353548467416358,0.7411642378411347,0.7481044617349296,0.7549428093438105,0.7603300833853471,0.7630173342890845,0.7620704246811556,0.7570807033890965,0.7483733723016658,0.7371723190613243,0.7241494657195048,0.7092047153580219,0.693353000663734,0.6781388647350746,0.6650395061636057,0.6550533155573591,0.6484761578731368,0.6448629049205341,0.6431764347064093,0.6421220242051779,0.6406698498431624,0.6387556734655767,0.637377146790879,0.6367084064884276,0.6358926497798532,0.6337372787342394,0.6292430281395689,0.6219464596694165,0.6120763501231563,0.600523822945893,0.5886258385039519,0.5777632485237891,0.5687716233112151,0.5613156617989626,0.5552727231615402,0.5510317985953498,0.5485593798352029,0.5474923478937003,0.5472563443019128,0.5471802989933248,0.5466105981676022,0.545020311772797,0.5421174879509729,0.5379499038297522,0.5330079163121002,0.5282785668883858,0.5248381047705606,0.5235740682813586,0.525071563717132,0.5294600475470916,0.5363509769507468,0.54486551440708,0.5537567762205672,0.5616202963571477,0.5671980521724801,0.5697734037165362,0.569658446305905,0.568550296903172,0.5679842151284232,0.5682864643173335,0.5690765262352243,0.5696831336055754,0.5694612568001968,0.5679995202269362,0.5652274303804672,0.561417515464808,0.5570840864477881,0.5527784638057506,0.5487797574204418,0.545235196694214,0.5434918319829045,0.5445225942479286,0.5485421478747847,0.5551726073941313,0.5636126423508463,0.5728129512669113,0.5816544672102522,0.5891341097092382,0.5945526395337166,0.5977092945432191,0.5991000675586341,0.5998214348939968,0.6007659412258883,0.602623995924466,0.6057762534100508,0.610180698762743,0.6153496007764553,0.6204118878103849,0.6242667915822322,0.6258213285391363,0.6243209868705656,0.6197616197472793,0.6133800039109878,0.6062639469176905,0.5975849612930435,0.5873931784327241,0.5765023695151925,0.5660441078736254,0.5571213164922204,0.5505634896294888,0.5467818546755605,0.5457263603439594,0.5469398884530077,0.5497180340838602,0.5533512427097234,0.5569305397280717,0.5594437566907204,0.5604941862358805,0.5602103499112608,0.5590974681752721,0.5578842605030288,0.5573755585929782,0.5583010545401839,0.5611639651305645,0.5660918289248065,0.5726856268289897,0.5799340994944668,0.5873209246455079,0.5944908216192696,0.6003480652432859,0.6036695095920533,0.6035889630888166,0.5998937461713456,0.5931309537912334,0.5845256846535711,0.57570571508127,0.5682382051208124,0.5629776374467306,0.559253241930783,0.5553652294972921,0.5509444927604504,0.5468309474790053,0.5442819914455286,0.544391676963872,0.5477016100916513,0.5540403741025055,0.5625448790594593,0.5719102879735596,0.580828666692764,0.5886450515177938,0.5961792502677494,0.6051417772266633
0.6986919000572533,0.7014186438547428,0.7060131647804575,0.7123513444653733,0.7196422996366714,0.7268391142445122,0.732953621499865,0.7372748136007796,0.7394915124810211,0.7397189396759695,0.7384290345119939,0.7362849277625362,0.7338857985544546,0.7321246477155464,0.7323762471551244,0.7351308878038706,0.7400529630014768,0.7462179107797776,0.7523455220155315,0.7570307152475202,0.7589706472045364,0.75718930507707,0.7512585702142937,0.7415170199141898,0.7292431140920296,0.7151419494331722,0.6991109409218881,0.682204989139228,0.6660251019185072,0.6520956913871171,0.6414366890460736,0.6343325334526977,0.63029504101953,0.6282231230274664,0.6267569512318405,0.6248289960716408,0.6224027239812553,0.6205785488775755,0.6195897487546242,0.6185665978061795,0.6162684853584055,0.6116424221415468,0.6041860989598123,0.5941155524221946,0.5823375423474202,0.5702265654461337,0.5592068530484955,0.5501386394340722,0.5426858768707176,0.536979089636172,0.5337099971216481,0.5329349170380818,0.5342022521414528,0.5367154342330375,0.5394972931609828,0.5415581504285077,0.5420634321468958,0.5405052478651822,0.5368744651344248,0.5318360864559912,0.5267732377151918,0.5227478427138732,0.5204808050964923,0.5205446549572674,0.5231648101638875,0.5281127125679749,0.5346962714486072,0.5418476971254843,0.5483069679940783,0.5529024426905184,0.5549285740329956,0.5546208265254964,0.5535432088598952,0.5532364264326556,0.5540578454480662,0.5556165216945217,0.5571979310473678,0.5580910562800426,0.557805869408536,0.5561922109186527,0.5534537579833249,0.5500587997767287,0.5465499357105753,0.5432475950501516,0.5404045553115243,0.539478952866204,0.5414701113588016,0.5465514474183258,0.5542657919701944,0.5637188407627826,0.5737747082317335,0.5832487392734345,0.5911042852458771,0.5966452426640028,0.5997121734831894,0.6008761469828092,0.6012237549439252,0.6014437611994549,0.6021703818134968,0.6038735580946951,0.6066858113960537,0.6103270516761876,0.61412346253667,0.6171273992498432,0.6183287469904575,0.6169692241032173,0.6129463247391328,0.6073053627640188,0.6009551949727522,0.593030076515182,0.5835520628681027,0.5733003381801448,0.5633702677214069,0.5548304845571476,0.5484829820461294,0.5447220567344145,0.5434956282165824,0.5443638272356748,0.5466631592282302,0.549749353954163,0.5526871826695471,0.5543469435335159,0.5543061387337858,0.5527480656624926,0.5502885303468281,0.5477972491684024,0.5462251918579556,0.5464281094071681,0.5489896887658384,0.5540476781767366,0.5611174471310938,0.5689933582761845,0.5771111153299863,0.585215357019077,0.5922150455017248,0.5968207666362345,0.5980610078652835,0.5956056796963761,0.5898961932529792,0.5820794945883727,0.57374778129085,0.566482176558478,0.5612047397715365,0.5573651283749761,0.5534109702452487,0.5490749720790218,0.545237030723692,0.5431472964452716,0.5438581383740521,0.5478488583432274,0.5548777565255711,0.5640161373181336,0.5739112846418198,0.5832375767630871,0.5913637033434964,0.5991647939083169,0.6082748085039494
0.6993025545915744,0.7024882543700643,0.7076803861672151,0.7147941586345852,0.7229994217962894,0.7311570190407922,0.7381578921971572,0.7431650904895442,0.7457579444803802,0.7459795510350123,0.7442861518462106,0.7414000190120811,0.7380699341791136,0.735320435598626,0.7344979761060604,0.7360782347137922,0.7397416341414513,0.744601114836589,0.7494268478813955,0.7528678867854697,0.7536706224502278,0.7508942976543965,0.7441235810605894,0.7336778689966278,0.7207767665613201,0.7060625346674925,0.6894191299536062,0.6719065272117649,0.6551366743647902,0.6406439133111831,0.6294520057142402,0.621841330008471,0.6173120349368705,0.6147468629161396,0.6127705632666809,0.6103091901516937,0.6073398606134581,0.6050055765051693,0.6035747319248309,0.6021885713144851,0.5996036679262573,0.5947588726613994,0.5871443696207331,0.5769727271560677,0.5651522356431041,0.5530621597036528,0.5421305240741684,0.5332136405107398,0.5259735518548481,0.520736442039813,0.5184114543687133,0.5191072546168837,0.5222918083625652,0.5269938000228241,0.5320065889949968,0.5360969497311407,0.5382150143929657,0.537709078606511,0.5345423788456337,0.5295144727959558,0.5242814268735767,0.5198039181595051,0.5166005227296909,0.5152078440577476,0.5159401439429271,0.5187415645953551,0.5231359444625263,0.5282776018081261,0.5330987205629409,0.5365564410300977,0.5379787506818895,0.5375096311994042,0.5365300294976781,0.5366037563517361,0.538147206195188,0.5407602288555138,0.5436666641886221,0.5460578371393284,0.5473271061730635,0.5472065258033509,0.5457994312450283,0.5435108112663711,0.5408766567412183,0.538288782715316,0.5361530148624772,0.5360558433438294,0.5390384201165672,0.545250553156862,0.5541665809655291,0.5647994111592954,0.5759137308742958,0.5862359491853878,0.5946656444003752,0.6004826505862983,0.6035545085925921,0.6045413992891702,0.604561854466862,0.6041092393647552,0.6037339004255522,0.6039577952759563,0.6050582336968389,0.6069520340634729,0.6091765591414453,0.6109732483069477,0.6114656503506981,0.6099417207634364,0.6062294264491827,0.6011631848480952,0.5954495855040602,0.5882397319456404,0.579556653683271,0.5701428133967706,0.561031273192085,0.5532157280999765,0.547422564297266,0.543983099303381,0.5428069774790077,0.5434534964314951,0.5453082336666801,0.5478353736085051,0.5501319498445376,0.5509811752349307,0.549942460482376,0.5472456285181699,0.5435969635287725,0.539980915236277,0.5374660329447035,0.5370095650612476,0.5392589673448205,0.5443588321913619,0.5517525062078787,0.5600758107488468,0.5687301090738234,0.5775558731331427,0.5854796721450453,0.5911661597079957,0.593556060336094,0.5922121314117218,0.5874676422914334,0.580379270095625,0.5724837654989793,0.5653554434703635,0.5599735273206984,0.5559181017359863,0.5518076760010838,0.5474890115810838,0.5438877203459186,0.5422465844000084,0.5435710383063276,0.548270719051746,0.5560247431046825,0.5658307704734841,0.5762816366220845,0.5860306189355261,0.5944721853916766,0.6025399170766851,0.6117724591668511
0.700572087514443,0.7042301036037786,0.7099933216446029,0.7178098384141994,0.7268229943882996,0.7358241773354279,0.7436090877265195,0.7492371492928495,0.7521934615571135,0.7524545157673607,0.7504559853433261,0.7469646567100945,0.7428568378228465,0.7392514336870433,0.7374209026250906,0.7378076736185419,0.7401143963917579,0.7435161384340077,0.7468700034477492,0.7489206180470491,0.7485028438502552,0.7447410213154865,0.7372444738901155,0.7263006296183614,0.7130247744547116,0.6979594493782832,0.680973245140278,0.6631160785869681,0.6459891686629754,0.6311167993209695,0.6195145026531262,0.6114572435968735,0.6064431163298094,0.603356874480817,0.600829670451631,0.5977981950224538,0.5942546219955543,0.5913611209998328,0.5894074253395816,0.5875546361716786,0.5845762505238576,0.5794235894726211,0.5715939439830171,0.5613014645635799,0.5494503826452753,0.5374109630523848,0.5265983206879671,0.5178536040500076,0.5108379794910795,0.5060465972717664,0.5045672649480678,0.5065462901952912,0.5113789748338433,0.5179449059203572,0.5248462061669593,0.5306504665077341,0.5341350320394582,0.5345358419348122,0.531798644357791,0.5268346447165595,0.5215119330364586,0.5166519207932091,0.5125578844584199,0.509721479646578,0.508543553951485,0.5091452890330933,0.511278368986615,0.5143359204320278,0.5174612913847526,0.5197569572032746,0.5205926601604977,0.5200140945448114,0.5191972106526525,0.519735876231352,0.5221157151437741,0.5259273147088124,0.5303246878327265,0.5343877435832417,0.5373771550845374,0.5388914564882707,0.5389213287381841,0.5378016471447015,0.536064155851535,0.5341856799038683,0.5327456142832361,0.5334605615729651,0.5374155094851707,0.5447409662757529,0.5548472264377464,0.5666551280828885,0.57882732773438,0.5899947765784913,0.5989849534638299,0.6050454727723112,0.6080676706135232,0.608807023878257,0.6084325463485827,0.6072515406903171,0.6057232267735944,0.6044072719822966,0.6037127459416566,0.6037470609536247,0.6042615147043248,0.6046983115377998,0.604332515960618,0.602517186797678,0.5990212570689113,0.594459833495306,0.5893304036411996,0.5828271726128076,0.5749896012602018,0.5665243743158486,0.5583926457461192,0.5514969936694354,0.5464690518062322,0.5435577307543091,0.5426186906973259,0.5432011524475763,0.5447402518901701,0.5468213400296231,0.5485966164768635,0.5487776557319857,0.5469080558838169,0.543256212915283,0.5386048804289685,0.5340348710339122,0.5307146745037618,0.5296866566857262,0.5316532263658479,0.536764777731159,0.5444058685444877,0.553078903469174,0.5621599109942667,0.5715767029514099,0.5802785454982866,0.5868955231102945,0.5902938779470234,0.5899380950775358,0.5860575177203815,0.5796162068634759,0.5720875222183341,0.5650297863728496,0.5594717393059456,0.5551258801682762,0.5507879838852104,0.5464222925366966,0.5429993074191992,0.5417518544771159,0.5436375327132049,0.5489952832154689,0.5574259585900949,0.5678557524845388,0.5788255832387152,0.5889696860449153,0.5977075999979975,0.6060260433241418,0.6153593458251714
0.7024751654690423,0.7064370008876326,0.712555338305266,0.7208210697769917,0.7303888603922134,0.7400262423417866,0.7484716898531221,0.7547017051520568,0.7581065535463924,0.758575190488748,0.7564884004590887,0.7526215349698039,0.7479590814414342,0.7437280338685266,0.7411420108364037,0.7406011285889826,0.7418090320896424,0.7439817142624144,0.746048946337436,0.7468489677139637,0.7453153194668993,0.7406569524502543,0.7325307957110868,0.721207358230313,0.7076931433218979,0.692437968863133,0.6753201593444017,0.6573697946888255,0.6401455549127049,0.6251228969393203,0.6132748252420602,0.6048484682246118,0.5993337583506585,0.5956273864625297,0.5923897174890397,0.5885967975048091,0.5842764036685234,0.5805611990341115,0.577711606834053,0.574927520870313,0.5710559545024145,0.5651278984677662,0.5567051416520679,0.5460375911880211,0.5340310257922525,0.5220249448215362,0.5113814063837164,0.5028835618000002,0.4961682393051615,0.4918880103374572,0.49129950741097195,0.4945863747435601,0.5010779117134928,0.5095162643769816,0.5183264896074126,0.5258909734052832,0.5308255833367312,0.5322602203809027,0.5301218211764184,0.5254215900336644,0.5202114873865217,0.5151106461501863,0.510154582032184,0.5057706144762522,0.5024561292609199,0.5005442449489509,0.5000660702993414,0.5007137597886281,0.5018993759670406,0.5029130872241951,0.5031791402485999,0.5026112131348388,0.502103294410038,0.5032619712777638,0.5066504283870638,0.5118499226910395,0.5179388138512179,0.5238763909822418,0.5287792060429466,0.5321016569402661,0.5337128999021168,0.533873853424334,0.5331141920058542,0.5320063816535348,0.5313110488661151,0.532846001479468,0.5377185974645411,0.5460369050762739,0.5571568774378832,0.5699269478444842,0.5829314078780828,0.5947303632103684,0.6041001106856582,0.6102688792016278,0.6131525767160394,0.6135867798963166,0.6127702503695655,0.6108212066977535,0.6080930190497192,0.6051625980792973,0.6025546119315768,0.6005614441117196,0.5991558480666909,0.5980014952109098,0.5965524988280306,0.5942544203088594,0.5908321118784974,0.5866686745865174,0.5820453388523459,0.5762426333369213,0.5693316606111147,0.5619726873088086,0.5550293344438593,0.549280645384757,0.5452328744698391,0.5430283974263239,0.5424552641569432,0.5430510673878148,0.5443117015921171,0.5459657681055692,0.5472768352931299,0.5469504666374166,0.5445355304702377,0.5403226554340171,0.5351273192688166,0.5300678369993918,0.5263489266075764,0.5250413333319661,0.5268626885917621,0.531958655418817,0.5396833538493312,0.5484811649809529,0.557730840073112,0.5674364444321565,0.5766016900809714,0.5838722866768499,0.5880862314065225,0.5886382884162864,0.5856553789547481,0.5799857524937372,0.572996258142563,0.5661817350101321,0.5605900383088609,0.5560790269843678,0.5516498307158748,0.547366906309164,0.5442040404804122,0.5433414754943201,0.5456617715936105,0.5514316189064531,0.5601993485617771,0.5708675264693618,0.5819843870597334,0.5922140615722412,0.6010151449291185,0.6093781440505336,0.618578401190137
0.70525186724935,0.7092178796559392,0.7152878122667974,0.7235097833804977,0.7331234153080548,0.7429637656997448,0.7517908421362727,0.7585444285554703,0.762524133038244,0.7634954410814883,0.76171988943558,0.757912029556548,0.7531232108316748,0.7487103059473312,0.7458541358393894,0.744890638914497,0.7454796997780074,0.7468329081752673,0.7479231774398978,0.7476764938778927,0.7451449978804425,0.7396619999406475,0.730978735542193,0.7193832660632181,0.705769512173643,0.6905139682700913,0.6735579906474072,0.6558961246719632,0.6389856641549648,0.6241801831686142,0.6123447819196074,0.6036557986666451,0.5975818982941724,0.5930494271283578,0.5887895081993219,0.5838693612773127,0.5783883505169393,0.5733648176049956,0.5689504072567069,0.5644284065991102,0.5588296423813669,0.5513886483309057,0.5418318392734828,0.5304982929539731,0.518292621322049,0.5064705389345948,0.4962569135937104,0.48829571018205514,0.4821618410039923,0.47862455042339275,0.4790625988453297,0.4836864642426907,0.49177806658474743,0.5019804050104072,0.5125906142506647,0.521857028396039,0.5282780164910502,0.5309055756727876,0.5296505755014859,0.5255934082484928,0.5208952655997383,0.515864098634339,0.5101864372204434,0.5041899864237335,0.4984782720020807,0.4936433329963595,0.49007246063859844,0.4878486216723731,0.48674382342602046,0.4863055638927767,0.4860371660249285,0.48567233552800626,0.48570076015753005,0.4876985592316803,0.4923072547737092,0.49909877337092645,0.5070751541776032,0.5150737883779245,0.5220664055742553,0.5273621967928935,0.5307092496971457,0.5322950725957498,0.5326493512971764,0.5324436874160531,0.5326066804242879,0.5349903985069726,0.5406828490218791,0.5497656208343216,0.5615652179826782,0.5749013480161901,0.5883337726082114,0.6004052500185175,0.6098854709097064,0.6160089164669956,0.61871389695066,0.6188761812280791,0.6176796174204707,0.6150650981317735,0.6112601485728997,0.60681469484886,0.6023241368171364,0.5982363376905099,0.59473981986596,0.591739330675824,0.5889089953140528,0.5858347170674203,0.5822338527671747,0.5782560087027921,0.5739721157993998,0.568819595057073,0.5629218691906692,0.556868255295335,0.5513760212358673,0.5470440436090817,0.5442008116083714,0.5428443328707784,0.5426769121798678,0.5432288589216724,0.5440811586204708,0.5451484092129698,0.5459143794666629,0.5452125587764037,0.5426435302044788,0.5384916079033317,0.5335240344492637,0.5287837675551115,0.5253879517088315,0.5243243352466854,0.5262458816707856,0.5312685363267067,0.5387660827609402,0.547262820895218,0.556186699405607,0.5655930134326506,0.5746024134632888,0.5819775476188696,0.5866241989004479,0.5879280421229788,0.5859247843136096,0.5813037821133472,0.5752442929149477,0.5690844579886086,0.5638260523204993,0.5594876593603858,0.555324656543015,0.5514660451288418,0.5488041841295929,0.5483806533798438,0.550948091077278,0.5566960469015736,0.5651705476640474,0.5753460490360598,0.5858938263484041,0.595607681483946,0.6040152137815632,0.6120185772521415,0.6206420443729427
0.7092674908130391,0.7128931465549168,0.718436567566596,0.7260134880823446,0.7350324345380028,0.7445049837950961,0.7533104967195715,0.7604142564792473,0.7650401425134019,0.766796860014867,0.7657579209565489,0.7624963266632615,0.7580738614525954,0.7539908632232764,0.7514215179843913,0.7506121775516058,0.7511273494577335,0.752122754348712,0.7525807452494527,0.7515087823509983,0.7481002696675516,0.7418585226117098,0.7326827355344723,0.7209176984379935,0.7073418691867486,0.6922807964952146,0.6758002189163934,0.6588421301806413,0.6426966541029302,0.6285135066299807,0.6169762548637029,0.6081420760396388,0.6014437574296101,0.5958569153459342,0.5902299263004396,0.58377880866361,0.5767146275616547,0.5698624474498719,0.5631983100223223,0.5561474930200571,0.5480446565406023,0.5384544787022469,0.5273624305232689,0.5152362837666503,0.5029578579006175,0.4916255386655787,0.4822273382869295,0.4751842127104448,0.469986192415772,0.4674474583163741,0.46897480338299236,0.4747824452745207,0.48413784283571465,0.49565683724379833,0.5076023141900817,0.5181868620970277,0.5258771154559293,0.5297029235658847,0.529568223242607,0.5265669065715451,0.5228438342711098,0.5182941367996443,0.5121996587295249,0.5047561115516971,0.4966674949266937,0.48880745906913664,0.4819654547108342,0.4766785640956848,0.4731461818529686,0.47122990944169385,0.47053800721300987,0.4705949846467794,0.4713912286388532,0.4744058151634858,0.48033584129544654,0.48874169035737647,0.49856218874653685,0.5085367908499776,0.5175219444171675,0.5247118979075371,0.5297592035783728,0.5327939813915638,0.5343472629901612,0.5351705028405931,0.5363052600432887,0.5395417773292032,0.5458954077228859,0.555417696311801,0.5674394164835226,0.5808098513975448,0.5941346372613145,0.6060101270395464,0.6152568512857162,0.6211487605172638,0.6236417475504453,0.6235976516762358,0.6221350009156199,0.619064153227723,0.6144815525511534,0.6088579205524216,0.6027912865557323,0.5968242612823311,0.5913239767193689,0.5864292941562822,0.5820567030493882,0.5779765519953276,0.5739463008449142,0.569910044331791,0.5657627012139563,0.5611701882018094,0.5563246267160031,0.5517179046877084,0.5478713322727905,0.5451481698278273,0.5436506498880628,0.5431995295294052,0.5433984453884002,0.5437788660783457,0.5440332269292135,0.5443001828314393,0.5443981799460906,0.5434396987996573,0.5411299450712507,0.5377162601607872,0.5338258557607932,0.5302986645943176,0.5280257724080176,0.5277845852796791,0.5300735256951413,0.5349496427152244,0.5418627105322587,0.549570770752905,0.5575960323092585,0.5660065182802487,0.5741072075974948,0.5808959640765762,0.5854622893908366,0.5872616834199573,0.5862597510427692,0.5829488471799631,0.578234734997556,0.5731935285232223,0.5687033749840611,0.5649485622400164,0.5614852586327636,0.5584658975997369,0.5566046884835525,0.5567060859981813,0.5593299790058853,0.5645828203831224,0.5720649410838105,0.5809296523518523,0.5901031464210119,0.5986219777305317,0.6061176882503649,0.6133039963008473,0.6208716467683202
0.7147416823954643,0.7177075097479138,0.7222710425496648,0.7286176516074738,0.736398535804357,0.7449033508310426,0.7532263688638086,0.7604249929971364,0.7656718629402666,0.7683995265798786,0.7684379337583386,0.7661455514746065,0.7625334219357435,0.759242015710059,0.7574598894548816,0.757321234564446,0.7582507425689423,0.7593035697353726,0.759442405578357,0.757750785756284,0.7535831168135559,0.7466519405471956,0.7370510205361841,0.725215879406466,0.7118070844370433,0.697119045424639,0.6813944875942551,0.6655087839795711,0.6505281522356204,0.637327776903844,0.6263462831924276,0.6174799815211257,0.6101133467161817,0.6032880427701857,0.5960097203486932,0.5876928547025828,0.5786956545964481,0.5696023382925842,0.5601825793498038,0.5500633179356789,0.5389804738326932,0.5269213209873833,0.5141888776369913,0.501388652477735,0.48933832860886334,0.47889963599585306,0.4707330439017423,0.46497471157973264,0.46103437935567865,0.45967891659124965,0.4622125161620785,0.46881980998534767,0.47879759383776954,0.4908322803905583,0.5032805415330734,0.5144537582396743,0.5229048152800192,0.5277187487107131,0.5288062358299075,0.5272010434689038,0.5248707478563758,0.521236451630298,0.5151728825174022,0.5067248602020926,0.4966727199315372,0.48615238002061895,0.4763463804544225,0.4682491535039772,0.46250247000228967,0.45930299521103046,0.45838288919937664,0.45906305967115374,0.46080444144411714,0.4649101642976761,0.4720836586458042,0.4818686677163523,0.4931696369223301,0.5046794932267048,0.515202811314987,0.5238831390043701,0.5303313830770281,0.5346531708134155,0.537380683659237,0.5393016419875538,0.5414731272346132,0.5455151076679728,0.5523156418489442,0.5618935233961392,0.5736192534993357,0.5864329141497172,0.599059933791272,0.6102230944369638,0.6188539240645899,0.6242994497474265,0.6265278653051958,0.6263296204785688,0.6247155011251629,0.6214474415481045,0.6165086847874157,0.610243221638161,0.6031717845274955,0.5958472268448897,0.588745090003385,0.5821957914719718,0.5763494217295632,0.5711844755788928,0.5665473468073818,0.5622355416199306,0.5580317490822087,0.5538833336791538,0.5500601493811543,0.5469355267426153,0.544799638254744,0.5437434728907748,0.5436131380477344,0.5440350986571391,0.5445120858056478,0.5445869266488336,0.5440819446331042,0.5433798072758849,0.5427193342430019,0.5416209692367397,0.5399398503172581,0.5378583116813556,0.5357841016236752,0.5342438674578073,0.5337821368710602,0.5348568215974346,0.5377345288285156,0.5423885077458548,0.548393723431642,0.5548767914453114,0.561482750743534,0.5682466627675413,0.5747133748384697,0.5802209606482794,0.5841522410038235,0.5861117940603774,0.5860272289026217,0.5841715935019216,0.5811105502377958,0.5775700175906988,0.5742307553062677,0.5714321374156143,0.5690626746474833,0.5672608563725637,0.5664788845415374,0.5671975946075718,0.569729194982599,0.5740917021081711,0.5799866332237203,0.5868393835245238,0.5939446785534798,0.600679892634218,0.6068114000045359,0.612783716255064,0.6189061665733354
0.721578899050916,0.7236429342975772,0.7268767825333984,0.7315291630365575,0.7375430908335953,0.74456061162444,0.7519657478539631,0.7589661987877144,0.7647138850681093,0.7684639306078341,0.7697718405504046,0.7687301872038561,0.7662436428353768,0.7640723781242362,0.7634304640371286,0.7643258474068173,0.7660148886550714,0.7674240717073935,0.7674776336618064,0.7653315967518294,0.7605140970479883,0.7529717384690401,0.7430222435317305,0.7312135968710168,0.7180867108930781,0.7039171310914358,0.6891584150293879,0.6746098451938882,0.6610775501099829,0.6491170616418476,0.638881706915741,0.630080442606315,0.6220411544000543,0.6138827617183061,0.6047937753167695,0.5944190268106534,0.583288071006323,0.5717392975341762,0.5593494625060891,0.5459954820220024,0.5318690424389219,0.5174181115828209,0.5032719538267001,0.4901490186460744,0.47874869141148535,0.46962611946294247,0.4630508617804814,0.4588485253452997,0.4563818631381081,0.4562746110545601,0.45958445936083214,0.4664289895151268,0.476181766412939,0.48770621201655207,0.49959228374903764,0.5103976616225943,0.51889047346355,0.5242965326415477,0.5265486680625748,0.5265412113096308,0.5258970089267512,0.5235567458446659,0.5180438266469758,0.5092508673055659,0.497995746951613,0.4856159537297095,0.4736203076893011,0.46339939900833177,0.4559920234910186,0.4519086256581546,0.4510133327647402,0.4524634864899621,0.45523556644058855,0.46038022835246567,0.4685387906772282,0.479231729160841,0.4913688423958793,0.5036681645114414,0.51496952201143,0.5244546060023649,0.5317668984950297,0.5370317242087729,0.5407818639946168,0.543779444749517,0.5469739358059976,0.5517129643061447,0.5587121448022104,0.5679557410196869,0.5788849422719148,0.5905828912109659,0.6019575608820882,0.611920485891371,0.6195652786922583,0.6243401640708822,0.6262207247427035,0.6258772353369928,0.6241864712696813,0.6209667147135896,0.6161269427668803,0.6098509089729061,0.6025059451205904,0.5945606033307815,0.5865073271155222,0.5787960498036001,0.5717695068906768,0.5656120846060831,0.5602990939419379,0.5555615385086325,0.5511532177555225,0.547327434149558,0.5444320124179289,0.5427113761007042,0.5422122222649807,0.5427431031142416,0.5438901933640841,0.5450883744350963,0.545747218895041,0.5454308120541178,0.5440972162742449,0.5423683918541918,0.5409417732698343,0.5398243196546074,0.5390482481018681,0.5387114124721665,0.5389501303521843,0.5399064570323348,0.5417008824060561,0.5444022494935138,0.5479968850677475,0.5523603277038593,0.5572263255181334,0.5621778969236377,0.5669916220704084,0.5716249909519013,0.5758933060909774,0.5795470476475807,0.5823428154177844,0.5841006761246744,0.5847451876348247,0.58433098913579,0.5830507573934799,0.5812259140848156,0.5792858322764699,0.5776999735643406,0.5766968904420381,0.5763768808075966,0.5768742328931381,0.5782904664976308,0.5806536450523472,0.5838879786556818,0.5878262883580196,0.5922245191216178,0.5968184406420148,0.6013892002361793,0.6058600532893192,0.6103598153970352,0.6148147691298812
0.729300189541763,0.7303314833548988,0.7320448024034358,0.7347391858534675,0.7386658561600953,0.743852499063269,0.7500134809648776,0.7565456116232336,0.7626101608957682,0.7673010692124197,0.7698982208262872,0.7702075893670353,0.7689869739498298,0.7680823167620207,0.7687332784765629,0.7708183946951468,0.7734190899630929,0.775326028238731,0.7754204553103903,0.7729298847477026,0.7675589115149275,0.7594941278485249,0.7492842120348886,0.7375945869130774,0.7248454695392924,0.7112962855508425,0.6976192661264308,0.6845349793943301,0.6725801079948938,0.6619789049137785,0.6525892470033655,0.6439259477027832,0.6352586561365955,0.6257864197766178,0.6148876213799538,0.6024461685770832,0.5891715989304981,0.5751941330098194,0.559950608549453,0.54359596451991,0.5267790319665947,0.5103863143898534,0.4953321932920649,0.4823949380454664,0.47209997453394464,0.46464919302401386,0.4598970925871461,0.4573732569142572,0.45644843859664785,0.4575230253070584,0.46128016569462976,0.4677366204891847,0.4763843201721317,0.48635745203611425,0.4966031512162545,0.5060557504548544,0.513813246534819,0.5193179625503018,0.5225396530367578,0.5241629180335621,0.5253253722857419,0.5245362156018253,0.5200687233652928,0.511680490787947,0.500180304135393,0.48701849431555666,0.4739194147126003,0.462557434338955,0.4542729139609234,0.4498311999228901,0.44922283745418584,0.45150769512776817,0.4552869720437963,0.4612983589654629,0.4700487115213453,0.4810284447152567,0.4931961464707136,0.5053717272017281,0.5165249750406118,0.5259710486779244,0.533465379434574,0.5392012623310114,0.543710136153523,0.547661766602336,0.551773393032796,0.5570446491592462,0.5639912422057706,0.5725624312178275,0.5822904296549379,0.5924351214993825,0.6021273659998123,0.6105070278350861,0.6168617458289835,0.6207592488466688,0.6221789950040207,0.6216397375596933,0.6198806450560266,0.6168805121162207,0.6125267787152996,0.6068298684740369,0.5999451611991653,0.5921719128228525,0.5839250814678533,0.5756871606121854,0.5679292347699176,0.5610145275416414,0.5550702033309504,0.5498461616827911,0.5451532760825607,0.5415449276979964,0.5394388718766685,0.5389542583322013,0.5399061479050641,0.5418391282683348,0.5441009371110275,0.5459553331752612,0.546735174572765,0.5460321984250855,0.543931392112592,0.5412655633517286,0.5391739083374008,0.5381636804168085,0.5384468108379961,0.5400287093282004,0.54275849162057,0.5463736954678383,0.5505508097566236,0.5549522260390476,0.5592733653621355,0.5632913017255876,0.5669122597696583,0.5702025998361203,0.573058560305351,0.575324864393406,0.5770887233945468,0.5785387687367316,0.5798426727480094,0.5810751551653026,0.582191551339073,0.5830491542669938,0.5834739950377986,0.5833739179112986,0.5829016223345991,0.5826223691987518,0.58308894309356,0.5843539333534874,0.5862181281867251,0.5883873110010946,0.5905934882445987,0.5926640943306842,0.5945692683189725,0.5964085793493815,0.5983773430791561,0.6006775609852312,0.6033975360264461,0.6063478598923019,0.6091139495595976
0.7370775602433257,0.7370700205537968,0.737258181045679,0.7379754618693171,0.7397622024144861,0.7430184284488289,0.7477866487419093,0.7536641232378539,0.7598448742054073,0.7652914554447777,0.769035635106049,0.7706100127559483,0.7706078714841221,0.7709202709800608,0.772801137009308,0.7760088225224641,0.7794656042982745,0.7818422652315602,0.7819870875880304,0.7792006596082305,0.7733566311750358,0.7648673479087796,0.7544955549609589,0.7430112808231556,0.7307140321222139,0.7178393789177735,0.7052589847162652,0.6936188124180738,0.6832050535583354,0.6739347413934745,0.6653918735537367,0.656911592676778,0.6477099067660088,0.637060721100732,0.6245193410226907,0.610192845202574,0.5949630210649275,0.5788228835586333,0.5611498800480634,0.5423783310499132,0.5235632299776608,0.5059526527402368,0.49066464293357376,0.4784682601991491,0.4696700532338271,0.46410512148792216,0.46123292200004196,0.4603380136307936,0.46086378634039876,0.4629402620747826,0.46679154302581133,0.47231110845982116,0.4791359826435141,0.48673274762210256,0.4944862552063064,0.5017930512653047,0.5081561420844237,0.5132844692589366,0.5171942695102435,0.5203155690306227,0.5232159858065646,0.524067126278098,0.5210167714663405,0.5137188270028492,0.5029291015247545,0.4901124511518595,0.47707870295867066,0.4656461209322772,0.45733256520987,0.4530734775316046,0.45296858537087914,0.4560570080750678,0.4607114016753311,0.4673271399508726,0.4762150767612775,0.48683109533231694,0.49822035430267764,0.5093712610679626,0.5194649827262697,0.5280319134851389,0.5350088518970945,0.540696933161919,0.545625645171233,0.5503142934659482,0.5551482014191264,0.5607460278879846,0.5674187577342135,0.5750823842083133,0.5833656468718853,0.5917135015844205,0.5994887347840018,0.6060688989194237,0.6109427540326482,0.613801212436362,0.614626978082786,0.613780632853793,0.6118814830774383,0.6091519382852888,0.6055109882832018,0.6008054586236314,0.5949506635137897,0.5880186352625126,0.5802703093299375,0.572137433991102,0.5641462308911093,0.5567927358800917,0.5503576052124467,0.5446812048116247,0.5397027308514204,0.5362416966907156,0.5347737417585162,0.5353089240006533,0.5374649472294114,0.5405646116106876,0.5437587633811394,0.5461738767310222,0.5470856400762124,0.5461144564378453,0.5434504617064597,0.5400902369646006,0.5375462854000487,0.5367721176189154,0.5381369522174287,0.5415574831659844,0.5466182151389486,0.5526873014196572,0.559036986670794,0.5649615526538441,0.5698949882786478,0.5735298891524836,0.5759355033771174,0.5776259427665486,0.5785867112662927,0.5785335677646485,0.5777977845429066,0.5769803116125032,0.5766472717452488,0.5771328489562838,0.5784468424858429,0.580286914082433,0.5821568188167972,0.5835862610148832,0.5844610610321581,0.5854053694471996,0.587259428110327,0.5900375134236633,0.593231546444005,0.5961772484801795,0.5983264068216215,0.5994076623874204,0.5995093181364155,0.5990411128412856,0.5986185302074947,0.598832227627811,0.5999296916411745,0.6014447847123083,0.6026964052177788
