-0.011112,-0.0029,0.005059,0.012601,0.019635,0.026133,0.032112,0.037619,0.042722,0.047497,0.052019,0.056356,0.060566,0.064684,0.068731,0.072705,0.076585,0.080331,0.083893,0.08721,0.090223,0.092878,0.095144,0.097017,0.098539,0.099827,0.101015,0.102139,0.103164,0.103999,0.104527,0.10462,0.104154,0.103028,0.101169,0.098542,0.095151,0.091045,0.086316,0.081088,0.075518,0.06978,0.064054,0.058509,0.053283,0.04846,0.044049,0.039948,0.035928,0.031758,0.027375,0.02281,0.018159,0.013556,0.009156,0.005113,0.001567,-0.001371,-0.003625,-0.005161,-0.005994,-0.006183,-0.00583,-0.005077,-0.004095,-0.00307,-0.002193,-0.00164,-0.001551,-0.002006,-0.003001,-0.004413,-0.006005,-0.007682,-0.009484,-0.011466,-0.013689,-0.016212,-0.019079,-0.022321,-0.025943,-0.029928,-0.034233,-0.038788,-0.0435,-0.048256,-0.052928,-0.057376,-0.061464,-0.065063,-0.068064,-0.070391,-0.072017,-0.07298,-0.073396,-0.073484,-0.073548,-0.073808,-0.074377,-0.075296,-0.076549,-0.078075,-0.079787,-0.081578,-0.083335,-0.084947,-0.086311,-0.087341,-0.087969,-0.088151,-0.087869,-0.087127,-0.085957,-0.084408,-0.082548,-0.080458,-0.078221,-0.075918,-0.073616,-0.071359,-0.069266,-0.06761,-0.06661,-0.06641,-0.067088,-0.068663,-0.071103,-0.074331,-0.078236,-0.082676,-0.087492,-0.09251,-0.09755,-0.102436,-0.107002,-0.1111,-0.114605,-0.117428,-0.119521,-0.120882,-0.121567,-0.121696,-0.12146,-0.121128,-0.120992,-0.121274,-0.122133,-0.123666,-0.125921,-0.128898
-0.012599,-0.004496,0.003379,0.010878,0.017927,0.024502,0.030625,0.036341,0.041713,0.046809,0.051695,0.056428,0.061049,0.065584,0.070038,0.074396,0.078626,0.082677,0.086492,0.090005,0.093155,0.095893,0.098192,0.100063,0.101566,0.102823,0.103944,0.10495,0.105796,0.106396,0.106637,0.106403,0.105584,0.104095,0.101877,0.098909,0.095211,0.090843,0.085901,0.080519,0.074854,0.069081,0.063374,0.057896,0.052778,0.048093,0.04384,0.039909,0.036061,0.032072,0.02789,0.023553,0.019156,0.014832,0.01073,0.006997,0.003763,0.001132,-0.000829,-0.002093,-0.00268,-0.002654,-0.00212,-0.001221,-0.000123,0.000986,0.001921,0.002512,0.002624,0.002182,0.001197,-0.000207,-0.001793,-0.003477,-0.005309,-0.007351,-0.009666,-0.012312,-0.015331,-0.018747,-0.02256,-0.026746,-0.031253,-0.036006,-0.040903,-0.045826,-0.050642,-0.055208,-0.059384,-0.063042,-0.066072,-0.068401,-0.070006,-0.070928,-0.07129,-0.071318,-0.071316,-0.071492,-0.071948,-0.072718,-0.073788,-0.075103,-0.076581,-0.078126,-0.079634,-0.081006,-0.082149,-0.082985,-0.083455,-0.08352,-0.083166,-0.082398,-0.081248,-0.079761,-0.078003,-0.076045,-0.073966,-0.071837,-0.069719,-0.067647,-0.06574,-0.064282,-0.063499,-0.06354,-0.064487,-0.066356,-0.069116,-0.072686,-0.07695,-0.081763,-0.086956,-0.09235,-0.097759,-0.102999,-0.107899,-0.112303,-0.116085,-0.119151,-0.121451,-0.122985,-0.12381,-0.124051,-0.123908,-0.12366,-0.123601,-0.12395,-0.12486,-0.12643,-0.128706,-0.131689
-0.013496,-0.005536,0.002222,0.009652,0.016691,0.023327,0.029581,0.035499,0.041138,0.046558,0.051814,0.056948,0.06199,0.06695,0.071817,0.076563,0.081143,0.085495,0.089553,0.093247,0.096513,0.099306,0.101608,0.103443,0.104891,0.106081,0.107094,0.107934,0.108552,0.10886,0.108758,0.108142,0.106921,0.105025,0.102415,0.099087,0.095075,0.090449,0.085317,0.079814,0.0741,0.068344,0.062717,0.057372,0.052427,0.047947,0.043915,0.040214,0.036597,0.032847,0.028919,0.024854,0.020746,0.016723,0.012925,0.009492,0.006546,0.004182,0.002461,0.001403,0.000987,0.001146,0.001778,0.002742,0.003876,0.005001,0.005938,0.006524,0.006632,0.006192,0.005217,0.003831,0.002262,0.00058,-0.001279,-0.003386,-0.005807,-0.008596,-0.011794,-0.015417,-0.019457,-0.023881,-0.028629,-0.033615,-0.03873,-0.043849,-0.048831,-0.053531,-0.057805,-0.061524,-0.06458,-0.066902,-0.068471,-0.069335,-0.069622,-0.069567,-0.069477,-0.069542,-0.06985,-0.070432,-0.071273,-0.072324,-0.073514,-0.074758,-0.075965,-0.077048,-0.077928,-0.078537,-0.078826,-0.078762,-0.078333,-0.07755,-0.076438,-0.075042,-0.073419,-0.071635,-0.069756,-0.067847,-0.065956,-0.064113,-0.062436,-0.061215,-0.060683,-0.060995,-0.062232,-0.064413,-0.067504,-0.071421,-0.076046,-0.081226,-0.08679,-0.092552,-0.098321,-0.103906,-0.109132,-0.113838,-0.117894,-0.121205,-0.123718,-0.125434,-0.126413,-0.126784,-0.126754,-0.12661,-0.126648,-0.127079,-0.128052,-0.129662,-0.131955,-0.134935
-0.013727,-0.005944,0.001666,0.008997,0.016001,0.022672,0.029038,0.035141,0.041034,0.046766,0.05238,0.057909,0.063363,0.068739,0.07401,0.079132,0.084048,0.088685,0.092966,0.096817,0.100173,0.102991,0.105264,0.107029,0.108388,0.109474,0.110341,0.110975,0.111318,0.111289,0.110798,0.109758,0.108097,0.105767,0.102748,0.099055,0.094736,0.089875,0.084585,0.079007,0.073297,0.067621,0.06214,0.056995,0.052292,0.048079,0.044331,0.040917,0.037588,0.03413,0.030504,0.026751,0.02296,0.019251,0.015757,0.012607,0.009914,0.007767,0.006222,0.005295,0.004965,0.005168,0.005805,0.006745,0.007833,0.0089,0.009778,0.010314,0.010389,0.009939,0.008975,0.007616,0.006078,0.004406,0.002523,0.000349,-0.002185,-0.005134,-0.008531,-0.012385,-0.016679,-0.021371,-0.026387,-0.031633,-0.036991,-0.042324,-0.047488,-0.052331,-0.056708,-0.060487,-0.063562,-0.065866,-0.067384,-0.068171,-0.068365,-0.068207,-0.068008,-0.067938,-0.068071,-0.068431,-0.069006,-0.069754,-0.070615,-0.071518,-0.072389,-0.073154,-0.073748,-0.074116,-0.074218,-0.074029,-0.073541,-0.072763,-0.071721,-0.070452,-0.069007,-0.06744,-0.065809,-0.064164,-0.062545,-0.060974,-0.059566,-0.058619,-0.058368,-0.058971,-0.060512,-0.063009,-0.066426,-0.070678,-0.075644,-0.081168,-0.087074,-0.093174,-0.09927,-0.105171,-0.110694,-0.115679,-0.119991,-0.123534,-0.126255,-0.128154,-0.129295,-0.12981,-0.12991,-0.129889,-0.130041,-0.130567,-0.131612,-0.133265,-0.135571,-0.138536
-0.013243,-0.005666,0.001766,0.008968,0.015906,0.022586,0.029036,0.035297,0.041416,0.047433,0.053382,0.059278,0.065119,0.070884,0.076532,0.082005,0.087228,0.092121,0.096596,0.100573,0.103988,0.106801,0.109011,0.110674,0.111912,0.112863,0.113551,0.113941,0.113973,0.113571,0.112659,0.111168,0.109048,0.106273,0.102846,0.098799,0.094197,0.089136,0.083735,0.078135,0.072492,0.066962,0.061695,0.056818,0.052421,0.048538,0.045128,0.042054,0.039062,0.035944,0.032662,0.029253,0.025799,0.02241,0.019209,0.016316,0.013834,0.011847,0.010406,0.009528,0.009194,0.009346,0.009894,0.010717,0.011674,0.012609,0.013368,0.013809,0.013823,0.01335,0.012399,0.011078,0.009581,0.007931,0.00603,0.003789,0.001137,-0.001979,-0.005587,-0.009688,-0.014255,-0.01923,-0.024533,-0.030055,-0.035667,-0.041226,-0.046577,-0.051566,-0.056043,-0.059875,-0.062961,-0.065234,-0.066688,-0.067383,-0.067467,-0.067189,-0.066864,-0.06664,-0.066576,-0.066691,-0.066974,-0.067394,-0.067904,-0.068447,-0.068965,-0.069403,-0.069709,-0.069842,-0.069772,-0.06948,-0.068962,-0.068227,-0.067296,-0.0662,-0.064979,-0.063677,-0.062339,-0.061003,-0.059698,-0.058438,-0.057337,-0.056693,-0.056747,-0.057654,-0.0595,-0.062303,-0.066026,-0.070583,-0.075851,-0.081673,-0.087872,-0.094255,-0.100626,-0.106789,-0.112563,-0.117784,-0.122318,-0.126066,-0.128977,-0.131053,-0.132357,-0.133023,-0.133266,-0.133383,-0.133663,-0.134297,-0.135418,-0.137115,-0.13943,-0.14237
-0.012023,-0.004679,0.002547,0.009591,0.016435,0.023091,0.02959,0.035972,0.042279,0.048543,0.054784,0.061005,0.06719,0.073302,0.079285,0.085065,0.090556,0.095664,0.100295,0.104363,0.107802,0.110575,0.112693,0.114224,0.115313,0.116101,0.116581,0.116702,0.116397,0.115601,0.114249,0.112297,0.109716,0.106504,0.102686,0.098314,0.093468,0.088254,0.082797,0.077238,0.071727,0.066411,0.061426,0.056882,0.052851,0.049352,0.046329,0.043637,0.041025,0.038286,0.035381,0.03234,0.029234,0.026162,0.023236,0.020565,0.018246,0.016355,0.014944,0.014031,0.013602,0.013609,0.013974,0.014591,0.015334,0.016066,0.016648,0.016952,0.016879,0.016371,0.015435,0.014162,0.012719,0.011099,0.009188,0.006886,0.004117,0.000832,-0.002991,-0.007345,-0.012188,-0.017454,-0.023048,-0.028848,-0.034716,-0.040499,-0.046035,-0.051163,-0.055732,-0.05961,-0.062694,-0.064925,-0.066302,-0.066892,-0.066853,-0.066444,-0.06598,-0.065589,-0.065315,-0.065172,-0.065153,-0.065236,-0.065389,-0.065572,-0.065745,-0.065868,-0.065907,-0.065832,-0.065623,-0.065269,-0.064766,-0.064122,-0.063353,-0.062482,-0.061536,-0.060548,-0.059547,-0.05856,-0.057607,-0.056692,-0.055929,-0.055615,-0.055987,-0.057202,-0.059343,-0.062429,-0.066422,-0.071237,-0.07675,-0.082805,-0.089225,-0.095819,-0.102391,-0.108747,-0.114704,-0.120102,-0.124807,-0.128722,-0.131795,-0.134029,-0.135489,-0.136309,-0.136704,-0.13697,-0.137388,-0.138136,-0.139338,-0.141077,-0.143395,-0.146298
-0.01008,-0.002991,0.004006,0.010867,0.017585,0.024182,0.03069,0.037151,0.043598,0.050056,0.056535,0.063025,0.069496,0.075897,0.082157,0.088189,0.093894,0.099169,0.103911,0.108029,0.111455,0.114158,0.116155,0.117529,0.118445,0.119048,0.1193,0.119132,0.118478,0.117277,0.115486,0.113079,0.110053,0.106429,0.102254,0.0976,0.092561,0.087252,0.081802,0.076351,0.07104,0.066005,0.061364,0.057211,0.053599,0.050528,0.047931,0.045656,0.043453,0.041122,0.038617,0.035957,0.033201,0.030436,0.02776,0.025272,0.023063,0.021205,0.019749,0.018718,0.018107,0.01788,0.017974,0.018302,0.018757,0.019221,0.019574,0.019704,0.019521,0.01897,0.018051,0.016836,0.015458,0.013879,0.011967,0.009611,0.006733,0.003284,-0.000749,-0.005348,-0.010463,-0.016013,-0.021889,-0.027959,-0.034073,-0.040069,-0.045777,-0.051032,-0.055681,-0.05959,-0.06266,-0.064838,-0.066127,-0.066604,-0.066434,-0.065885,-0.065276,-0.064713,-0.064224,-0.063822,-0.063503,-0.063258,-0.063068,-0.062912,-0.062767,-0.062611,-0.062424,-0.062188,-0.061893,-0.061532,-0.061103,-0.060609,-0.060061,-0.059469,-0.058851,-0.058223,-0.057602,-0.057001,-0.056429,-0.055889,-0.055489,-0.055521,-0.056219,-0.057735,-0.060151,-0.063485,-0.067699,-0.07271,-0.078395,-0.084602,-0.091157,-0.097872,-0.104554,-0.111015,-0.117075,-0.122577,-0.12739,-0.13142,-0.134616,-0.136984,-0.138585,-0.139555,-0.140104,-0.140525,-0.141087,-0.141951,-0.143235,-0.145013,-0.147325,-0.15018
-0.007459,-0.00064,0.006109,0.012763,0.019326,0.025828,0.032304,0.038792,0.045323,0.051915,0.058566,0.065257,0.071944,0.078564,0.085033,0.091252,0.097111,0.102496,0.107297,0.111421,0.114799,0.117401,0.119252,0.120449,0.121175,0.121576,0.121587,0.121123,0.120116,0.118517,0.1163,0.113462,0.110022,0.106026,0.101544,0.096663,0.091493,0.086154,0.080779,0.075503,0.070457,0.065764,0.061524,0.057811,0.054659,0.052051,0.049907,0.04807,0.046297,0.044391,0.042298,0.040022,0.03761,0.035133,0.032677,0.030331,0.028178,0.02629,0.024719,0.023495,0.022623,0.022083,0.02183,0.021797,0.0219,0.022043,0.022125,0.02205,0.021739,0.021139,0.02024,0.019092,0.01779,0.016264,0.01436,0.011961,0.008985,0.005387,0.001159,-0.003671,-0.00904,-0.014855,-0.020994,-0.027314,-0.033654,-0.039841,-0.045702,-0.051065,-0.055775,-0.0597,-0.062744,-0.064858,-0.066052,-0.066411,-0.066107,-0.065418,-0.064662,-0.063928,-0.06323,-0.062579,-0.061979,-0.06143,-0.060931,-0.060476,-0.060061,-0.059679,-0.059326,-0.058995,-0.058682,-0.058383,-0.058096,-0.05782,-0.057554,-0.057301,-0.057062,-0.056838,-0.056633,-0.056448,-0.056282,-0.056136,-0.056116,-0.056505,-0.057527,-0.059329,-0.06199,-0.065527,-0.069902,-0.075036,-0.080809,-0.087075,-0.093665,-0.100399,-0.107091,-0.113558,-0.119629,-0.125151,-0.129999,-0.134083,-0.137357,-0.139824,-0.141547,-0.142656,-0.143357,-0.143932,-0.144636,-0.145616,-0.146977,-0.148788,-0.151087,-0.153883
-0.004235,0.002303,0.008791,0.015218,0.0216,0.027971,0.034371,0.040834,0.047389,0.054047,0.060798,0.067613,0.074438,0.081198,0.087799,0.094132,0.100077,0.105511,0.110321,0.114406,0.117699,0.120173,0.121859,0.122864,0.123388,0.123578,0.123342,0.122583,0.121233,0.119256,0.116641,0.113408,0.109601,0.105288,0.100557,0.095516,0.090281,0.084982,0.079749,0.074713,0.069992,0.065694,0.061902,0.058667,0.056005,0.053881,0.052204,0.050814,0.049478,0.048003,0.046322,0.044425,0.042341,0.040128,0.037858,0.035612,0.033466,0.031491,0.029744,0.028261,0.027063,0.026145,0.025484,0.025035,0.024737,0.024518,0.024297,0.023997,0.023546,0.022895,0.022022,0.02095,0.019733,0.018268,0.016386,0.013958,0.0109,0.007172,0.00277,-0.002265,-0.007861,-0.013911,-0.020283,-0.026822,-0.033357,-0.039708,-0.045694,-0.05114,-0.055892,-0.059817,-0.062823,-0.064864,-0.065959,-0.066199,-0.065766,-0.064941,-0.064043,-0.063146,-0.062255,-0.061377,-0.060526,-0.059714,-0.058953,-0.058258,-0.057638,-0.057103,-0.05666,-0.056313,-0.056062,-0.055904,-0.055836,-0.055848,-0.05593,-0.056072,-0.056259,-0.05648,-0.056722,-0.056974,-0.057231,-0.057491,-0.057861,-0.058608,-0.059945,-0.06201,-0.064879,-0.068565,-0.073035,-0.078211,-0.083982,-0.090207,-0.096727,-0.103372,-0.109965,-0.116334,-0.122316,-0.127769,-0.132574,-0.136646,-0.139944,-0.142471,-0.144288,-0.145521,-0.146364,-0.147088,-0.147929,-0.149018,-0.150449,-0.152284,-0.15456,-0.157287
-0.000515,0.005738,0.011958,0.018144,0.024322,0.03053,0.036809,0.043195,0.049711,0.056364,0.063139,0.069996,0.076876,0.083694,0.090347,0.096718,0.102678,0.1081,0.112864,0.116868,0.120043,0.122365,0.123871,0.124676,0.124994,0.12497,0.124491,0.123447,0.121775,0.119449,0.116477,0.1129,0.108783,0.104217,0.099307,0.094174,0.088946,0.083754,0.078729,0.07399,0.069646,0.065787,0.062475,0.059744,0.057587,0.055954,0.054745,0.053799,0.052895,0.051844,0.050565,0.04903,0.047253,0.045275,0.043158,0.04097,0.038787,0.036678,0.034704,0.032914,0.031341,0.03,0.028888,0.027986,0.027257,0.026651,0.026111,0.025575,0.024981,0.02428,0.023438,0.022451,0.021328,0.019935,0.018086,0.015645,0.012527,0.008692,0.004147,-0.00106,-0.006847,-0.013095,-0.019661,-0.02638,-0.033072,-0.039551,-0.045631,-0.051134,-0.055904,-0.059812,-0.062769,-0.064733,-0.065729,-0.065856,-0.065301,-0.06435,-0.063324,-0.06228,-0.061217,-0.060146,-0.059086,-0.058064,-0.057106,-0.056242,-0.055498,-0.054895,-0.054452,-0.054177,-0.054076,-0.054145,-0.054375,-0.054747,-0.055241,-0.055831,-0.056489,-0.057186,-0.057897,-0.058601,-0.059288,-0.059959,-0.060719,-0.061818,-0.063453,-0.065753,-0.068785,-0.072565,-0.077059,-0.082195,-0.08787,-0.093953,-0.100297,-0.106744,-0.113129,-0.119294,-0.125089,-0.130381,-0.135062,-0.139055,-0.14232,-0.144863,-0.146744,-0.148078,-0.14905,-0.149911,-0.150877,-0.152063,-0.153553,-0.155402,-0.157644,-0.160291
0.003571,0.009542,0.015492,0.021428,0.027384,0.033399,0.039518,0.045775,0.052191,0.05877,0.065491,0.072311,0.079162,0.085954,0.092578,0.09891,0.104817,0.110166,0.114833,0.118716,0.121745,0.123897,0.125214,0.125817,0.12593,0.125697,0.124984,0.123676,0.121712,0.119078,0.115799,0.111937,0.107576,0.102826,0.097809,0.092657,0.087505,0.082486,0.077724,0.073333,0.069406,0.066015,0.063204,0.060985,0.059334,0.058186,0.057432,0.056914,0.056425,0.05578,0.054881,0.053685,0.052187,0.050414,0.048414,0.046252,0.043995,0.041716,0.039483,0.037354,0.035378,0.033589,0.032007,0.030637,0.029465,0.028468,0.027607,0.026836,0.026104,0.025359,0.024556,0.02366,0.02264,0.021327,0.019524,0.017087,0.013932,0.010021,0.005367,2.7e-05,-0.005907,-0.012308,-0.019023,-0.025877,-0.032683,-0.039251,-0.045389,-0.05092,-0.055687,-0.059562,-0.06246,-0.064346,-0.065249,-0.065273,-0.064609,-0.063549,-0.06241,-0.061242,-0.060039,-0.058816,-0.057601,-0.056433,-0.055353,-0.054405,-0.053626,-0.05305,-0.052702,-0.052597,-0.052738,-0.053121,-0.053727,-0.054529,-0.055494,-0.056579,-0.057743,-0.058941,-0.060135,-0.061298,-0.062413,-0.06349,-0.064634,-0.066072,-0.067982,-0.070482,-0.073632,-0.077446,-0.081894,-0.08691,-0.092399,-0.098243,-0.104309,-0.110454,-0.116529,-0.12239,-0.127902,-0.132946,-0.137425,-0.141269,-0.144445,-0.14696,-0.148869,-0.150279,-0.151359,-0.152339,-0.153414,-0.154681,-0.156215,-0.158065,-0.160263,-0.16282
0.007873,0.013571,0.019255,0.024939,0.030658,0.036458,0.04238,0.048462,0.054721,0.06116,0.067755,0.07446,0.081202,0.087889,0.094407,0.100628,0.106416,0.111636,0.116161,0.119888,0.122747,0.124717,0.125841,0.126247,0.126162,0.12573,0.124801,0.123256,0.121037,0.118144,0.114617,0.110534,0.106001,0.101141,0.09609,0.090988,0.085976,0.081185,0.076735,0.072728,0.069243,0.066335,0.064029,0.062317,0.061159,0.060475,0.060152,0.060034,0.059932,0.059663,0.059114,0.058225,0.056974,0.055374,0.053463,0.051297,0.048942,0.046473,0.043964,0.041485,0.039101,0.036864,0.034817,0.032986,0.031385,0.030009,0.028841,0.02785,0.026992,0.026214,0.025458,0.024661,0.023748,0.022524,0.02078,0.018367,0.015199,0.011245,0.006521,0.001091,-0.004944,-0.011448,-0.01826,-0.0252,-0.032075,-0.038689,-0.044851,-0.05038,-0.055122,-0.058952,-0.061786,-0.063596,-0.064414,-0.064349,-0.063596,-0.062449,-0.061221,-0.059957,-0.058651,-0.057325,-0.056016,-0.054774,-0.053655,-0.052712,-0.051996,-0.051546,-0.051393,-0.051554,-0.052031,-0.052811,-0.053868,-0.055164,-0.05665,-0.058271,-0.059967,-0.061681,-0.063365,-0.064982,-0.066517,-0.067987,-0.069499,-0.071255,-0.073413,-0.076076,-0.079298,-0.08309,-0.087425,-0.092245,-0.097467,-0.102985,-0.108682,-0.114432,-0.120103,-0.12557,-0.130714,-0.13543,-0.139634,-0.143267,-0.1463,-0.148741,-0.150641,-0.152097,-0.153261,-0.154338,-0.155499,-0.156827,-0.158388,-0.160224,-0.162364,-0.164824
0.012231,0.01767,0.023097,0.028531,0.034008,0.039573,0.04527,0.051136,0.057189,0.063429,0.069832,0.076352,0.082914,0.089423,0.095765,0.101811,0.107422,0.112463,0.116808,0.120351,0.123023,0.124803,0.125738,0.125955,0.125687,0.125072,0.123951,0.122201,0.119772,0.116672,0.112959,0.108726,0.104091,0.099193,0.094177,0.08919,0.084373,0.079857,0.075753,0.072152,0.06912,0.066694,0.064881,0.063656,0.062961,0.062709,0.06278,0.063024,0.063269,0.063338,0.063102,0.062482,0.061444,0.059987,0.058139,0.05595,0.053486,0.050823,0.048041,0.045224,0.04245,0.03979,0.037306,0.035048,0.033049,0.031327,0.029883,0.028698,0.027735,0.02694,0.026241,0.025549,0.024749,0.02362,0.021946,0.019576,0.016423,0.012458,0.007704,0.00223,-0.003855,-0.01041,-0.017268,-0.024244,-0.031141,-0.037761,-0.043911,-0.049411,-0.054109,-0.057882,-0.060652,-0.062391,-0.063138,-0.063004,-0.062186,-0.060977,-0.059687,-0.05836,-0.056994,-0.055618,-0.054281,-0.053044,-0.051971,-0.051128,-0.050572,-0.050349,-0.05049,-0.05101,-0.051908,-0.053164,-0.05474,-0.056584,-0.058634,-0.060819,-0.063064,-0.065301,-0.067469,-0.069528,-0.071465,-0.073309,-0.075167,-0.077215,-0.079589,-0.082377,-0.085626,-0.089344,-0.093507,-0.098067,-0.102951,-0.108069,-0.113321,-0.118598,-0.123789,-0.128786,-0.133489,-0.13781,-0.141677,-0.145042,-0.147881,-0.150206,-0.15206,-0.15353,-0.154749,-0.155896,-0.157117,-0.158483,-0.16005,-0.161855,-0.163927,-0.16628
0.016478,0.021677,0.026863,0.032055,0.037288,0.042608,0.048059,0.053677,0.059482,0.065474,0.071631,0.077906,0.084226,0.090496,0.096603,0.102418,0.107805,0.112628,0.11676,0.120099,0.122574,0.124165,0.124918,0.124962,0.124528,0.123752,0.122466,0.120548,0.117956,0.114707,0.110872,0.106555,0.101888,0.097019,0.0921,0.087282,0.082706,0.078498,0.07476,0.071574,0.068989,0.067028,0.06568,0.064906,0.064635,0.06477,0.065188,0.065748,0.066293,0.066654,0.066686,0.066297,0.065437,0.064095,0.062292,0.060071,0.057499,0.054654,0.051623,0.048501,0.045378,0.042343,0.039475,0.036844,0.034502,0.032485,0.030809,0.029468,0.02843,0.027637,0.027006,0.026424,0.025738,0.024711,0.023118,0.020809,0.017696,0.013755,0.009012,0.003541,-0.002545,-0.0091,-0.015954,-0.022917,-0.029791,-0.036377,-0.042483,-0.04793,-0.052569,-0.056279,-0.058985,-0.060664,-0.061358,-0.061178,-0.060322,-0.05908,-0.05776,-0.056406,-0.055026,-0.053658,-0.05236,-0.051205,-0.050266,-0.049616,-0.049315,-0.049413,-0.04994,-0.050907,-0.052305,-0.054104,-0.056254,-0.05869,-0.061335,-0.064101,-0.066902,-0.069655,-0.072294,-0.074776,-0.077091,-0.079281,-0.081456,-0.083766,-0.086323,-0.089199,-0.092433,-0.096031,-0.099975,-0.104223,-0.108714,-0.113375,-0.118124,-0.122869,-0.127521,-0.131992,-0.136199,-0.140071,-0.143551,-0.146601,-0.149205,-0.151372,-0.153145,-0.154596,-0.155839,-0.157026,-0.158278,-0.159656,-0.161206,-0.162964,-0.164955,-0.167193
0.02046,0.02544,0.030404,0.035366,0.040359,0.04543,0.050621,0.055969,0.061496,0.067204,0.073071,0.079054,0.085083,0.091066,0.096892,0.102434,0.10756,0.112134,0.116034,0.119155,0.12143,0.122838,0.123422,0.123312,0.122734,0.12182,0.120401,0.118356,0.115648,0.112307,0.10841,0.104074,0.099439,0.094659,0.089891,0.085285,0.080981,0.077099,0.073733,0.070952,0.068795,0.067267,0.066345,0.065975,0.066075,0.066543,0.067255,0.068078,0.068872,0.069474,0.069727,0.069526,0.068811,0.067561,0.06579,0.063539,0.060874,0.057876,0.054638,0.051263,0.047854,0.044513,0.041335,0.038405,0.035792,0.033547,0.031698,0.030247,0.029168,0.0284,0.027849,0.02738,0.026811,0.025889,0.024388,0.022156,0.019109,0.015223,0.010529,0.005104,-0.000936,-0.007443,-0.014243,-0.021148,-0.027958,-0.034476,-0.04051,-0.045885,-0.050453,-0.054097,-0.056746,-0.058379,-0.05904,-0.05884,-0.057976,-0.056733,-0.055414,-0.054072,-0.052725,-0.051421,-0.050231,-0.049233,-0.048511,-0.04814,-0.048185,-0.048691,-0.049686,-0.051175,-0.053139,-0.055536,-0.058303,-0.061362,-0.064618,-0.067972,-0.071323,-0.074579,-0.077667,-0.080544,-0.083207,-0.085711,-0.08817,-0.090708,-0.093413,-0.096342,-0.099525,-0.102967,-0.106654,-0.110552,-0.114613,-0.11878,-0.122987,-0.127164,-0.13124,-0.135146,-0.13882,-0.142207,-0.145265,-0.147965,-0.150298,-0.152275,-0.153933,-0.155332,-0.156567,-0.157761,-0.159014,-0.160375,-0.161886,-0.163579,-0.165475,-0.167593
0.024037,0.028823,0.033585,0.038333,0.043098,0.047921,0.052848,0.057914,0.063143,0.068541,0.07409,0.079748,0.085452,0.091113,0.096625,0.101866,0.106706,0.111014,0.114669,0.117569,0.119647,0.120881,0.121314,0.121071,0.120373,0.119348,0.117827,0.115694,0.112919,0.109537,0.105637,0.10134,0.096792,0.092151,0.087574,0.083211,0.079198,0.075646,0.072643,0.070247,0.068482,0.067344,0.066796,0.066774,0.067188,0.067929,0.068878,0.069908,0.070896,0.071686,0.072112,0.072058,0.071456,0.07028,0.068537,0.066269,0.063537,0.060428,0.05704,0.053482,0.049866,0.046305,0.042906,0.039767,0.036968,0.034572,0.032616,0.03111,0.030029,0.029311,0.028851,0.028497,0.028046,0.027231,0.025829,0.023689,0.020729,0.016928,0.012318,0.006978,0.001027,-0.005389,-0.012094,-0.018901,-0.025612,-0.032032,-0.037972,-0.04326,-0.04775,-0.051331,-0.053933,-0.055536,-0.056186,-0.055994,-0.055151,-0.053939,-0.052656,-0.051364,-0.050096,-0.048911,-0.047891,-0.047122,-0.046692,-0.046679,-0.047145,-0.048135,-0.049667,-0.051739,-0.05432,-0.057355,-0.060769,-0.064466,-0.068339,-0.072274,-0.07616,-0.079896,-0.083405,-0.086644,-0.08962,-0.092402,-0.09511,-0.09784,-0.100658,-0.103607,-0.10671,-0.10997,-0.113375,-0.116901,-0.120512,-0.124166,-0.127814,-0.131405,-0.134888,-0.138214,-0.141337,-0.14422,-0.146834,-0.149161,-0.151199,-0.152959,-0.154472,-0.155789,-0.156983,-0.158151,-0.159373,-0.16069,-0.162139,-0.163748,-0.16554,-0.167531
0.027104,0.03172,0.036304,0.040857,0.045406,0.04999,0.054654,0.059434,0.064358,0.069433,0.074646,0.079962,0.085321,0.090641,0.09582,0.100744,0.105285,0.109319,0.112726,0.115409,0.117298,0.118373,0.118673,0.118319,0.117526,0.116417,0.114825,0.112642,0.109842,0.106469,0.102614,0.098404,0.093988,0.089524,0.085167,0.081066,0.077348,0.07412,0.071459,0.069414,0.067999,0.0672,0.066969,0.067233,0.067898,0.068854,0.069981,0.071163,0.072292,0.073218,0.07377,0.073826,0.073311,0.072196,0.070485,0.068217,0.065456,0.062288,0.058817,0.055154,0.051421,0.047736,0.044214,0.040963,0.03807,0.035606,0.033615,0.03211,0.031067,0.030422,0.030064,0.029828,0.029491,0.028785,0.027487,0.025451,0.022596,0.018904,0.014408,0.009187,0.003358,-0.002929,-0.009504,-0.016181,-0.022766,-0.029065,-0.034895,-0.040087,-0.044498,-0.048021,-0.050587,-0.05218,-0.052842,-0.052684,-0.051894,-0.050744,-0.049527,-0.048322,-0.047174,-0.046159,-0.045365,-0.044886,-0.044813,-0.045223,-0.046175,-0.047707,-0.049831,-0.052531,-0.055764,-0.059462,-0.063535,-0.067874,-0.072356,-0.076857,-0.081254,-0.085441,-0.089337,-0.092903,-0.096153,-0.099175,-0.102094,-0.10498,-0.10788,-0.110822,-0.113821,-0.11688,-0.119991,-0.123137,-0.126293,-0.129433,-0.132523,-0.13553,-0.138423,-0.141168,-0.14374,-0.146116,-0.148279,-0.150222,-0.151949,-0.153471,-0.154815,-0.156021,-0.157145,-0.158256,-0.159417,-0.160663,-0.162027,-0.163536,-0.165212,-0.167072
0.029605,0.034074,0.0385,0.042876,0.047225,0.051582,0.055991,0.06049,0.065108,0.069858,0.074731,0.079697,0.084704,0.089675,0.094517,0.099118,0.10336,0.10712,0.110284,0.112757,0.11447,0.115401,0.115588,0.115145,0.11428,0.113111,0.111477,0.109276,0.106489,0.103164,0.099395,0.09531,0.091059,0.086798,0.082679,0.078844,0.075417,0.072495,0.070149,0.068417,0.067305,0.06679,0.066818,0.06731,0.068168,0.06928,0.070533,0.071817,0.073038,0.074054,0.074691,0.074824,0.074376,0.073315,0.071644,0.069401,0.06665,0.06348,0.059994,0.056309,0.052547,0.048834,0.045288,0.042019,0.039123,0.036672,0.034714,0.033263,0.032297,0.031748,0.0315,0.031381,0.031156,0.030557,0.029367,0.027442,0.024705,0.02114,0.01678,0.011703,0.006025,-0.000107,-0.006527,-0.01305,-0.019488,-0.025652,-0.031362,-0.036454,-0.040789,-0.044262,-0.046806,-0.048405,-0.049102,-0.049004,-0.048292,-0.047232,-0.046111,-0.045023,-0.044033,-0.043228,-0.042707,-0.042568,-0.042903,-0.043786,-0.045272,-0.047389,-0.05014,-0.053496,-0.057402,-0.061774,-0.066507,-0.071478,-0.076554,-0.081596,-0.086475,-0.091078,-0.095326,-0.09918,-0.102668,-0.105892,-0.108984,-0.111993,-0.114944,-0.117855,-0.120733,-0.123581,-0.126394,-0.129161,-0.131871,-0.134507,-0.137054,-0.139494,-0.141812,-0.143993,-0.146026,-0.147902,-0.149619,-0.151177,-0.152585,-0.153856,-0.155012,-0.156084,-0.15711,-0.158137,-0.15921,-0.160362,-0.161622,-0.163016,-0.164566,-0.166291
0.031547,0.035887,0.040173,0.044389,0.048552,0.052694,0.056858,0.061084,0.065404,0.069833,0.07437,0.07899,0.083646,0.088271,0.092777,0.09706,0.101007,0.104501,0.107431,0.109704,0.111254,0.112057,0.112148,0.111634,0.110716,0.109507,0.107854,0.105661,0.102916,0.099668,0.096013,0.092081,0.088016,0.083973,0.080099,0.07653,0.073382,0.070746,0.068685,0.067228,0.066376,0.066098,0.066334,0.067002,0.068002,0.069225,0.07056,0.071906,0.073181,0.074249,0.074939,0.075125,0.074729,0.073719,0.072099,0.069905,0.067204,0.064081,0.060644,0.057008,0.053298,0.04964,0.046153,0.042951,0.040127,0.037758,0.03589,0.034539,0.03368,0.033244,0.033112,0.033107,0.03299,0.032495,0.031412,0.029602,0.026992,0.023565,0.019354,0.014438,0.008928,0.002968,-0.003279,-0.009635,-0.015915,-0.021936,-0.027523,-0.032515,-0.036779,-0.04021,-0.042745,-0.044368,-0.045118,-0.045099,-0.044488,-0.043539,-0.042537,-0.041592,-0.040787,-0.040224,-0.040009,-0.040245,-0.041022,-0.042412,-0.044462,-0.047191,-0.050589,-0.054614,-0.059197,-0.06424,-0.069624,-0.075211,-0.080856,-0.086412,-0.091741,-0.096727,-0.10129,-0.105398,-0.109088,-0.11248,-0.115711,-0.118811,-0.121787,-0.124647,-0.127392,-0.130022,-0.132537,-0.134934,-0.137209,-0.13936,-0.141383,-0.143278,-0.145044,-0.146682,-0.148194,-0.149587,-0.150867,-0.152044,-0.153132,-0.154145,-0.155101,-0.156021,-0.156928,-0.157849,-0.158813,-0.159851,-0.160991,-0.162259,-0.163676,-0.165262
0.033019,0.037243,0.041401,0.045468,0.049455,0.053393,0.057321,0.061282,0.06531,0.069426,0.073633,0.077912,0.082225,0.08651,0.090687,0.094658,0.098317,0.101552,0.104257,0.10634,0.107737,0.108424,0.10843,0.107858,0.1069,0.105664,0.104007,0.101839,0.099153,0.095999,0.092476,0.08871,0.084843,0.081025,0.077397,0.074089,0.07121,0.068843,0.067044,0.065837,0.065214,0.065139,0.06555,0.066361,0.067472,0.068775,0.070164,0.071547,0.072851,0.07395,0.074674,0.074898,0.074547,0.073589,0.072029,0.069903,0.067278,0.064239,0.060893,0.057355,0.053751,0.050203,0.046832,0.04375,0.041049,0.038806,0.037064,0.03584,0.035105,0.034792,0.034777,0.034882,0.034867,0.034471,0.033492,0.031796,0.029313,0.026027,0.021972,0.017222,0.011888,0.006107,3.9e-05,-0.006145,-0.012264,-0.01814,-0.023604,-0.0285,-0.032697,-0.036095,-0.038631,-0.040287,-0.041103,-0.041178,-0.04068,-0.039858,-0.038988,-0.0382,-0.037597,-0.037294,-0.037404,-0.038034,-0.039272,-0.041184,-0.043811,-0.047161,-0.05121,-0.055905,-0.06116,-0.066864,-0.072882,-0.079066,-0.085258,-0.0913,-0.097051,-0.10239,-0.107238,-0.11157,-0.115433,-0.118963,-0.122305,-0.125469,-0.128448,-0.131239,-0.133838,-0.136245,-0.138461,-0.140491,-0.14234,-0.144017,-0.145533,-0.146899,-0.14813,-0.149241,-0.150248,-0.151169,-0.152022,-0.152824,-0.153593,-0.154345,-0.155093,-0.155851,-0.156627,-0.157427,-0.158269,-0.159181,-0.160192,-0.161326,-0.162605,-0.164049
0.03421,0.038322,0.042356,0.046279,0.050095,0.053831,0.057528,0.061227,0.064967,0.068771,0.07265,0.076591,0.080562,0.084508,0.088357,0.092018,0.09539,0.098368,0.100849,0.102745,0.103992,0.104564,0.104489,0.103862,0.102867,0.101609,0.099952,0.097815,0.095193,0.092141,0.088755,0.085161,0.081497,0.077906,0.074527,0.07148,0.068868,0.066768,0.065226,0.064261,0.06386,0.06398,0.064556,0.0655,0.066713,0.068088,0.069524,0.070936,0.072263,0.073386,0.074137,0.074395,0.074087,0.073181,0.071683,0.06963,0.067087,0.064141,0.060897,0.057471,0.053984,0.050561,0.047319,0.044369,0.041803,0.039693,0.038085,0.036989,0.03638,0.036185,0.036282,0.03649,0.036569,0.036264,0.035382,0.033794,0.031433,0.028285,0.024381,0.019795,0.014634,0.009032,0.003141,-0.00287,-0.008828,-0.014561,-0.019903,-0.024704,-0.028837,-0.032203,-0.034741,-0.036435,-0.03732,-0.037491,-0.037111,-0.036418,-0.035684,-0.035058,-0.034662,-0.034622,-0.035061,-0.036087,-0.037787,-0.040224,-0.043426,-0.047393,-0.052089,-0.057445,-0.063362,-0.069713,-0.076352,-0.083116,-0.089835,-0.096344,-0.102495,-0.108165,-0.113276,-0.117809,-0.121822,-0.125468,-0.128899,-0.132106,-0.13507,-0.137774,-0.140213,-0.142384,-0.144293,-0.145949,-0.147368,-0.14857,-0.149577,-0.150415,-0.151113,-0.1517,-0.152205,-0.152657,-0.153085,-0.153513,-0.153963,-0.154452,-0.15499,-0.155582,-0.156222,-0.156898,-0.157613,-0.158396,-0.159274,-0.160271,-0.161409,-0.162707
0.035348,0.039357,0.043276,0.047063,0.050716,0.054258,0.057728,0.061169,0.064621,0.068113,0.071659,0.075253,0.078871,0.082466,0.085971,0.089305,0.092373,0.095076,0.097317,0.09901,0.100092,0.100539,0.100373,0.099685,0.098647,0.097361,0.0957,0.093591,0.091035,0.088088,0.084847,0.081434,0.077984,0.074634,0.071515,0.068743,0.06641,0.064586,0.06331,0.062593,0.062415,0.06273,0.063468,0.064539,0.065845,0.06728,0.06875,0.070178,0.071512,0.072644,0.073408,0.073687,0.073407,0.07254,0.07109,0.069098,0.066627,0.063764,0.060614,0.057291,0.053915,0.05061,0.047491,0.044667,0.042228,0.040245,0.03876,0.037784,0.037288,0.037198,0.037391,0.037685,0.037841,0.037612,0.036812,0.035319,0.03307,0.030052,0.026296,0.021874,0.016889,0.01147,0.005766,-6.2e-05,-0.005846,-0.01142,-0.016625,-0.021316,-0.02537,-0.028692,-0.031222,-0.032944,-0.033891,-0.034155,-0.03389,-0.033325,-0.032727,-0.032262,-0.032072,-0.032296,-0.033065,-0.034487,-0.03665,-0.039607,-0.043382,-0.047961,-0.053296,-0.059304,-0.06587,-0.072855,-0.080097,-0.08742,-0.094645,-0.101598,-0.108124,-0.114099,-0.119446,-0.124153,-0.128288,-0.132023,-0.135515,-0.138742,-0.141668,-0.14427,-0.146535,-0.148464,-0.150062,-0.151347,-0.152343,-0.153079,-0.15359,-0.153915,-0.154095,-0.154172,-0.154189,-0.154185,-0.154197,-0.154259,-0.154394,-0.154621,-0.154948,-0.155368,-0.155867,-0.15641,-0.156993,-0.15764,-0.15838,-0.159236,-0.16023,-0.161383
0.036579,0.040504,0.044326,0.047996,0.051504,0.054868,0.058125,0.061318,0.064488,0.067667,0.070874,0.074111,0.077359,0.08058,0.083715,0.086692,0.089424,0.09182,0.093787,0.095247,0.096138,0.096436,0.09616,0.095394,0.094298,0.092971,0.091296,0.089211,0.086721,0.083886,0.080801,0.077585,0.074368,0.071281,0.068445,0.065969,0.063935,0.062404,0.061406,0.060944,0.060992,0.061497,0.062386,0.063569,0.064945,0.066415,0.06789,0.069301,0.070611,0.07172,0.072465,0.072733,0.072452,0.071595,0.07017,0.068215,0.065797,0.063001,0.059931,0.056699,0.053426,0.050231,0.047229,0.044525,0.042206,0.040341,0.038968,0.038097,0.037696,0.037691,0.037956,0.038311,0.038518,0.038339,0.037598,0.036181,0.034029,0.03113,0.027518,0.023261,0.01846,0.013238,0.007739,0.002117,-0.003467,-0.008854,-0.013892,-0.018443,-0.02239,-0.025641,-0.028141,-0.029873,-0.03087,-0.031218,-0.031065,-0.030627,-0.030163,-0.029858,-0.029874,-0.030363,-0.031461,-0.033281,-0.035905,-0.039382,-0.043725,-0.048908,-0.054871,-0.061516,-0.068714,-0.07631,-0.084128,-0.091981,-0.099679,-0.10704,-0.113904,-0.120146,-0.125691,-0.130533,-0.134754,-0.138539,-0.142057,-0.145272,-0.148136,-0.150619,-0.152705,-0.154394,-0.155696,-0.156632,-0.157233,-0.157539,-0.157594,-0.157448,-0.157153,-0.156763,-0.15633,-0.155904,-0.155529,-0.155244,-0.155078,-0.155048,-0.155159,-0.1554,-0.155743,-0.156139,-0.156574,-0.157074,-0.157666,-0.158375,-0.159223,-0.16023
0.037963,0.041828,0.045581,0.049161,0.05255,0.055762,0.05883,0.061793,0.064695,0.067568,0.070438,0.073309,0.076172,0.078997,0.081735,0.084321,0.08668,0.088729,0.090385,0.091574,0.092241,0.092359,0.091948,0.091082,0.089911,0.088524,0.086822,0.084752,0.082328,0.07961,0.076694,0.073694,0.070733,0.067934,0.065408,0.063253,0.06154,0.06032,0.059613,0.059412,0.059683,0.06037,0.061393,0.062662,0.064078,0.065546,0.066984,0.068335,0.069576,0.070617,0.0713,0.071515,0.071194,0.070312,0.068878,0.066933,0.064544,0.061796,0.058791,0.055642,0.052464,0.049375,0.046485,0.043897,0.041693,0.039938,0.038667,0.037886,0.03756,0.037613,0.037921,0.038305,0.03853,0.038369,0.037657,0.03629,0.034214,0.03142,0.027943,0.02385,0.019238,0.014226,0.008951,0.00356,-0.001794,-0.006962,-0.011799,-0.016175,-0.019981,-0.023132,-0.025575,-0.027296,-0.028327,-0.028748,-0.028701,-0.028386,-0.028054,-0.027908,-0.028129,-0.028881,-0.030308,-0.032523,-0.035603,-0.039592,-0.044492,-0.050265,-0.056836,-0.064093,-0.071892,-0.080064,-0.088421,-0.096762,-0.104888,-0.11261,-0.119764,-0.126224,-0.131919,-0.13685,-0.14111,-0.144902,-0.148404,-0.15157,-0.154345,-0.156696,-0.158602,-0.160065,-0.161095,-0.161721,-0.161976,-0.161909,-0.16157,-0.16102,-0.160316,-0.159523,-0.1587,-0.157903,-0.157183,-0.156583,-0.156135,-0.155857,-0.15575,-0.1558,-0.155969,-0.156198,-0.156466,-0.156801,-0.157233,-0.157788,-0.158487,-0.159351
0.039492,0.043329,0.047043,0.050566,0.053871,0.056965,0.059875,0.062638,0.065295,0.067881,0.070423,0.072932,0.075404,0.077818,0.080135,0.082303,0.084255,0.085921,0.087228,0.088109,0.088514,0.088422,0.087848,0.086858,0.085588,0.084122,0.082375,0.080311,0.077951,0.075357,0.072622,0.069856,0.067174,0.064688,0.062498,0.060687,0.059316,0.058422,0.058015,0.058076,0.058565,0.059418,0.060552,0.061876,0.063293,0.064715,0.066068,0.067308,0.068428,0.06935,0.069921,0.070035,0.069629,0.068681,0.067205,0.065241,0.062858,0.060141,0.05719,0.054114,0.051029,0.048045,0.045269,0.042797,0.040707,0.039057,0.037878,0.037171,0.036899,0.036984,0.037302,0.037677,0.037883,0.037703,0.036987,0.035639,0.033611,0.030901,0.027544,0.023607,0.019183,0.014388,0.00935,0.00421,-0.00089,-0.005809,-0.010414,-0.014583,-0.018217,-0.021237,-0.023597,-0.025286,-0.026334,-0.026819,-0.02687,-0.026675,-0.026472,-0.026482,-0.026904,-0.027917,-0.029667,-0.032268,-0.035794,-0.040279,-0.045714,-0.05205,-0.059197,-0.067027,-0.075385,-0.084085,-0.092926,-0.101699,-0.110196,-0.11822,-0.125606,-0.132227,-0.138017,-0.142984,-0.147233,-0.150983,-0.154421,-0.1575,-0.160161,-0.162366,-0.164097,-0.165354,-0.16615,-0.166515,-0.166489,-0.166121,-0.16547,-0.164598,-0.16357,-0.162454,-0.161314,-0.160212,-0.159201,-0.158328,-0.157624,-0.157109,-0.156784,-0.15663,-0.156605,-0.156644,-0.156723,-0.156875,-0.157134,-0.157525,-0.158074,-0.158798
0.041109,0.04495,0.048661,0.052163,0.055424,0.058441,0.061234,0.063837,0.066284,0.068613,0.070849,0.07301,0.075097,0.077098,0.078984,0.080715,0.082236,0.08349,0.084414,0.084954,0.085068,0.084735,0.08397,0.082833,0.081441,0.079874,0.078066,0.075997,0.073696,0.07123,0.068687,0.066171,0.063788,0.061636,0.059802,0.058355,0.057342,0.056785,0.056681,0.057002,0.057696,0.058694,0.059911,0.061254,0.062631,0.063959,0.065175,0.066249,0.067193,0.067941,0.068347,0.06831,0.067775,0.066722,0.065169,0.06316,0.060763,0.058063,0.055159,0.052156,0.049165,0.046291,0.043635,0.041285,0.039312,0.037766,0.036673,0.036027,0.035788,0.035876,0.03617,0.036498,0.036644,0.036407,0.035648,0.034283,0.032272,0.029619,0.026359,0.022561,0.018315,0.013733,0.008935,0.004055,-0.000777,-0.005428,-0.009778,-0.013716,-0.017152,-0.020018,-0.022273,-0.023911,-0.024962,-0.025499,-0.025643,-0.025563,-0.025485,-0.025646,-0.026265,-0.02753,-0.029592,-0.032564,-0.036515,-0.041469,-0.047407,-0.054266,-0.061942,-0.070295,-0.079152,-0.088316,-0.097577,-0.106713,-0.11551,-0.123767,-0.131318,-0.138036,-0.14386,-0.148807,-0.152992,-0.156649,-0.159977,-0.16293,-0.165449,-0.1675,-0.169063,-0.170139,-0.170745,-0.17091,-0.170675,-0.170092,-0.16922,-0.168122,-0.166866,-0.165519,-0.164148,-0.162816,-0.161577,-0.160476,-0.159549,-0.158813,-0.15827,-0.157901,-0.157661,-0.157485,-0.157353,-0.157303,-0.157374,-0.157595,-0.157991,-0.158581
0.042722,0.046599,0.050341,0.053864,0.057124,0.06011,0.062835,0.065325,0.06761,0.069722,0.07169,0.073532,0.075256,0.076856,0.078315,0.079603,0.080682,0.081506,0.082026,0.0822,0.081995,0.081396,0.080417,0.07911,0.077576,0.075887,0.074002,0.071917,0.069672,0.067334,0.06499,0.062736,0.060665,0.058862,0.0574,0.05633,0.055683,0.055467,0.055663,0.056233,0.057117,0.058236,0.059504,0.060828,0.06212,0.063305,0.064331,0.065186,0.065899,0.066419,0.066609,0.066375,0.065666,0.064473,0.062814,0.060737,0.058311,0.055621,0.052763,0.049838,0.04695,0.044198,0.041673,0.039455,0.037606,0.036168,0.035157,0.034561,0.034335,0.034399,0.034634,0.034876,0.034923,0.034589,0.033749,0.032329,0.030298,0.027666,0.024474,0.020788,0.0167,0.012314,0.007747,0.003121,-0.00144,-0.005819,-0.009903,-0.013597,-0.016821,-0.019516,-0.021651,-0.023224,-0.024266,-0.024847,-0.025076,-0.025108,-0.02515,-0.025456,-0.026263,-0.027768,-0.030125,-0.033445,-0.037791,-0.043178,-0.049573,-0.056903,-0.065048,-0.073855,-0.083139,-0.092692,-0.102292,-0.111711,-0.120729,-0.129143,-0.136784,-0.14353,-0.149325,-0.154194,-0.158262,-0.161775,-0.164945,-0.167734,-0.170088,-0.171976,-0.173383,-0.174309,-0.174773,-0.174802,-0.174438,-0.17373,-0.172734,-0.171513,-0.17013,-0.168652,-0.167141,-0.165659,-0.164258,-0.162982,-0.161866,-0.160928,-0.16017,-0.159574,-0.159101,-0.158688,-0.158323,-0.158054,-0.157924,-0.157967,-0.158211,-0.158672
0.044216,0.048161,0.05197,0.055552,0.058856,0.061863,0.064574,0.067005,0.069183,0.071134,0.072882,0.074449,0.075845,0.077073,0.078125,0.078983,0.079622,0.080012,0.080119,0.079913,0.079372,0.078489,0.077276,0.075781,0.074086,0.072258,0.070281,0.06817,0.065974,0.063764,0.061623,0.059636,0.057886,0.056441,0.055357,0.054669,0.054389,0.054509,0.054997,0.055801,0.056851,0.058064,0.059349,0.060615,0.061779,0.062774,0.063563,0.064148,0.064579,0.064822,0.064748,0.064273,0.063355,0.061989,0.060201,0.058041,0.055579,0.052898,0.050091,0.047255,0.044484,0.04187,0.039494,0.037424,0.035711,0.034386,0.033456,0.032901,0.032672,0.032687,0.032831,0.032951,0.032861,0.032392,0.031431,0.029916,0.027826,0.025176,0.022012,0.018403,0.014439,0.010222,0.005861,0.001471,-0.002835,-0.006949,-0.010773,-0.014223,-0.017231,-0.01975,-0.021758,-0.023257,-0.024283,-0.0249,-0.025209,-0.025346,-0.025503,-0.025948,-0.026932,-0.02866,-0.03129,-0.034928,-0.039629,-0.0454,-0.052197,-0.059931,-0.068473,-0.077655,-0.087282,-0.097136,-0.106986,-0.116599,-0.125751,-0.134237,-0.141892,-0.148595,-0.154298,-0.159031,-0.16293,-0.166252,-0.169219,-0.171808,-0.173974,-0.175694,-0.176956,-0.177765,-0.178136,-0.178096,-0.177683,-0.176941,-0.175921,-0.17468,-0.173274,-0.171763,-0.170205,-0.168654,-0.167159,-0.165762,-0.164494,-0.163374,-0.162406,-0.161576,-0.160853,-0.160183,-0.159566,-0.159061,-0.15872,-0.158582,-0.158674,-0.159014
0.045468,0.04951,0.053418,0.057098,0.060492,0.06357,0.066324,0.068759,0.070893,0.072744,0.074334,0.075682,0.076802,0.077701,0.078382,0.078837,0.079057,0.079024,0.078722,0.078134,0.077251,0.076072,0.074614,0.072917,0.071047,0.069067,0.066985,0.064839,0.062687,0.060602,0.058662,0.056944,0.055515,0.054429,0.053723,0.053412,0.053492,0.053937,0.0547,0.055717,0.056908,0.058184,0.059452,0.060622,0.061618,0.062381,0.062889,0.06316,0.063266,0.063188,0.062811,0.062059,0.060902,0.059341,0.057407,0.055156,0.052657,0.049991,0.047248,0.044516,0.041884,0.03943,0.037224,0.03532,0.033759,0.032556,0.03171,0.03119,0.030943,0.030887,0.030911,0.030875,0.030614,0.029974,0.028855,0.027206,0.025014,0.022303,0.019123,0.015547,0.011665,0.007574,0.003381,-0.000807,-0.004886,-0.00876,-0.012343,-0.015562,-0.018364,-0.020713,-0.022594,-0.024019,-0.025025,-0.025673,-0.026056,-0.026293,-0.026559,-0.027133,-0.028281,-0.030213,-0.033087,-0.037005,-0.042015,-0.048114,-0.055245,-0.06331,-0.072165,-0.081634,-0.09151,-0.101568,-0.111572,-0.121284,-0.130478,-0.138952,-0.14654,-0.15313,-0.158678,-0.163221,-0.166903,-0.169989,-0.172713,-0.175069,-0.177028,-0.178576,-0.179707,-0.180429,-0.180755,-0.180711,-0.180325,-0.179637,-0.178688,-0.177525,-0.176194,-0.174746,-0.173229,-0.171689,-0.170167,-0.168701,-0.167318,-0.166038,-0.164867,-0.1638,-0.162813,-0.16187,-0.160987,-0.160235,-0.159675,-0.159351,-0.159294,-0.159522
0.046356,0.05052,0.054557,0.05837,0.061896,0.065097,0.067951,0.070454,0.072611,0.074433,0.075934,0.077131,0.078038,0.078667,0.079027,0.079123,0.078957,0.078528,0.077835,0.076876,0.075654,0.07418,0.072471,0.070564,0.068511,0.066369,0.064175,0.061987,0.059872,0.057908,0.056166,0.054712,0.053599,0.052865,0.052526,0.052581,0.053005,0.053757,0.054773,0.055978,0.057281,0.05859,0.059808,0.060849,0.06164,0.062136,0.062327,0.062249,0.061995,0.061562,0.06085,0.059795,0.058377,0.056606,0.054521,0.052177,0.049647,0.047009,0.044347,0.041742,0.039271,0.037002,0.03499,0.033276,0.031883,0.030815,0.030056,0.029569,0.029293,0.029146,0.029026,0.028806,0.028343,0.027501,0.02619,0.024368,0.022033,0.019215,0.015971,0.012377,0.008524,0.004509,0.000435,-0.003598,-0.007494,-0.011167,-0.014541,-0.017558,-0.020176,-0.022368,-0.024134,-0.025489,-0.026475,-0.027153,-0.027605,-0.027936,-0.028303,-0.028997,-0.030293,-0.032406,-0.035491,-0.039647,-0.044913,-0.051276,-0.058669,-0.066981,-0.07606,-0.08572,-0.095746,-0.105908,-0.115965,-0.125679,-0.134824,-0.143199,-0.150646,-0.157054,-0.162388,-0.166691,-0.170114,-0.172924,-0.175369,-0.177463,-0.179198,-0.180572,-0.181586,-0.182249,-0.182575,-0.182583,-0.182295,-0.18174,-0.180948,-0.179952,-0.178786,-0.177488,-0.176093,-0.174636,-0.173149,-0.171663,-0.170201,-0.168783,-0.16742,-0.166113,-0.164855,-0.163628,-0.162468,-0.161461,-0.160679,-0.16017,-0.159968,-0.160092
0.046769,0.051076,0.055264,0.059242,0.06294,0.066311,0.069322,0.071956,0.074205,0.076071,0.077558,0.078679,0.079446,0.079874,0.079978,0.079771,0.079269,0.078484,0.077431,0.076124,0.074579,0.072816,0.07086,0.068743,0.066504,0.064196,0.061887,0.059652,0.057571,0.05572,0.054168,0.052969,0.052161,0.051763,0.051776,0.052177,0.052924,0.053958,0.055201,0.056565,0.057952,0.059263,0.060402,0.061283,0.061843,0.062044,0.061892,0.06144,0.0608,0.05999,0.058922,0.057548,0.055858,0.053872,0.051634,0.049205,0.046656,0.044064,0.041505,0.039053,0.036771,0.034713,0.032921,0.031418,0.030212,0.029292,0.028627,0.028172,0.027859,0.027608,0.027322,0.026894,0.026206,0.025136,0.023603,0.021573,0.019053,0.016083,0.012723,0.009057,0.005175,0.001178,-0.002837,-0.006773,-0.01054,-0.014062,-0.017274,-0.020128,-0.022592,-0.024655,-0.026322,-0.027619,-0.02859,-0.029295,-0.029813,-0.030231,-0.030692,-0.031495,-0.032922,-0.03519,-0.038452,-0.0428,-0.048265,-0.054823,-0.0624,-0.070874,-0.080084,-0.089837,-0.099913,-0.110078,-0.12009,-0.12971,-0.138716,-0.146913,-0.154144,-0.160309,-0.165376,-0.169395,-0.172521,-0.175023,-0.177159,-0.178969,-0.180466,-0.181663,-0.182571,-0.1832,-0.183563,-0.183672,-0.183541,-0.183186,-0.182623,-0.18187,-0.180946,-0.179872,-0.178668,-0.177356,-0.175958,-0.174495,-0.172988,-0.171454,-0.16991,-0.168367,-0.166835,-0.165318,-0.163877,-0.162613,-0.161607,-0.160916,-0.160576,-0.160606
0.046613,0.051076,0.055435,0.059601,0.063505,0.067089,0.070309,0.073134,0.075544,0.077526,0.079078,0.080202,0.080909,0.081212,0.081132,0.08069,0.079911,0.078823,0.077454,0.075833,0.073991,0.071959,0.069766,0.067444,0.065022,0.062552,0.060128,0.057846,0.055794,0.054051,0.052679,0.051721,0.0512,0.05112,0.051461,0.052183,0.053226,0.054513,0.055954,0.057448,0.05889,0.060177,0.06121,0.061909,0.062216,0.062105,0.061594,0.060755,0.059717,0.058518,0.057085,0.055385,0.053421,0.051224,0.048843,0.046343,0.043794,0.04127,0.038839,0.036565,0.0345,0.032681,0.031134,0.029865,0.028864,0.028104,0.027541,0.027118,0.026764,0.026398,0.025933,0.025279,0.024347,0.023028,0.021248,0.018981,0.01624,0.013072,0.009547,0.005751,0.001781,-0.002264,-0.006285,-0.010189,-0.013891,-0.017322,-0.020426,-0.023165,-0.025518,-0.027483,-0.029076,-0.030329,-0.031293,-0.032029,-0.032607,-0.033106,-0.033654,-0.034555,-0.036094,-0.038491,-0.041892,-0.046384,-0.051989,-0.058675,-0.066358,-0.074908,-0.084158,-0.093908,-0.103937,-0.114008,-0.12388,-0.133318,-0.142103,-0.150046,-0.156997,-0.162863,-0.167617,-0.171316,-0.174116,-0.176285,-0.178087,-0.179595,-0.180845,-0.181864,-0.182673,-0.183286,-0.183714,-0.183962,-0.184033,-0.183929,-0.183651,-0.183199,-0.182575,-0.181782,-0.180824,-0.179707,-0.178442,-0.177039,-0.175515,-0.173886,-0.172174,-0.170402,-0.168599,-0.166793,-0.165072,-0.163553,-0.162328,-0.161461,-0.160991,-0.160935
0.045815,0.050443,0.054984,0.059359,0.063494,0.067326,0.0708,0.073872,0.076504,0.078674,0.080365,0.081572,0.082299,0.08256,0.082375,0.081772,0.080786,0.079456,0.077824,0.075934,0.07383,0.071555,0.069144,0.066631,0.064036,0.061413,0.05888,0.056553,0.054529,0.052887,0.051683,0.05095,0.050696,0.050909,0.051551,0.052563,0.05387,0.05538,0.056988,0.058583,0.060055,0.061293,0.062202,0.062704,0.062747,0.062317,0.061444,0.060216,0.058779,0.05719,0.055395,0.053375,0.051147,0.04875,0.046243,0.043691,0.041165,0.038733,0.036457,0.034389,0.032566,0.031012,0.029732,0.028716,0.027937,0.027349,0.026895,0.026508,0.02611,0.025623,0.024968,0.024078,0.02289,0.02131,0.019265,0.016735,0.013741,0.010336,0.006597,0.002617,-0.001503,-0.005661,-0.009756,-0.013697,-0.017403,-0.020809,-0.023866,-0.026544,-0.028832,-0.030738,-0.032286,-0.033517,-0.034484,-0.035252,-0.035888,-0.036461,-0.037088,-0.038074,-0.039708,-0.042206,-0.04571,-0.050298,-0.055986,-0.062733,-0.070447,-0.078992,-0.088195,-0.097854,-0.107746,-0.117634,-0.127282,-0.136458,-0.14495,-0.152574,-0.159191,-0.164713,-0.169118,-0.172469,-0.17492,-0.176737,-0.178191,-0.179384,-0.180378,-0.181217,-0.181933,-0.182542,-0.183052,-0.183462,-0.183763,-0.183943,-0.183985,-0.183872,-0.183587,-0.183113,-0.182438,-0.181551,-0.18045,-0.179135,-0.177616,-0.17591,-0.174045,-0.172055,-0.169988,-0.167902,-0.165909,-0.164142,-0.162706,-0.161672,-0.161081,-0.16095
0.04433,0.049125,0.053854,0.058447,0.062833,0.06694,0.070705,0.074067,0.076978,0.079398,0.081298,0.082663,0.083491,0.08379,0.083581,0.082896,0.081777,0.080274,0.07844,0.076333,0.074011,0.071526,0.068924,0.066239,0.063489,0.060727,0.058097,0.055731,0.053736,0.052189,0.051141,0.050614,0.050605,0.051083,0.051994,0.053266,0.054804,0.056504,0.058249,0.05992,0.061397,0.06257,0.063343,0.063641,0.063419,0.062673,0.061446,0.059839,0.058016,0.05605,0.053906,0.051582,0.049108,0.046533,0.043922,0.041343,0.038865,0.036551,0.034455,0.032617,0.031061,0.029792,0.0288,0.028054,0.027508,0.027102,0.026764,0.026415,0.025974,0.025363,0.024516,0.023384,0.021936,0.020088,0.017767,0.014957,0.011683,0.008007,0.004012,-0.000203,-0.004531,-0.008865,-0.013102,-0.017149,-0.020928,-0.024376,-0.02745,-0.030125,-0.032399,-0.034287,-0.035823,-0.037052,-0.038036,-0.03884,-0.039532,-0.040172,-0.040869,-0.041929,-0.04364,-0.046212,-0.049783,-0.054424,-0.060142,-0.066888,-0.074565,-0.083032,-0.092111,-0.1016,-0.111277,-0.120907,-0.130258,-0.139106,-0.147245,-0.1545,-0.160739,-0.165882,-0.169913,-0.172895,-0.174985,-0.17644,-0.177536,-0.178407,-0.179141,-0.179798,-0.180421,-0.181028,-0.181626,-0.182205,-0.182746,-0.183221,-0.183598,-0.183839,-0.183909,-0.183772,-0.183397,-0.182758,-0.181837,-0.180627,-0.17913,-0.177364,-0.17536,-0.173167,-0.17085,-0.168497,-0.166245,-0.164245,-0.162611,-0.16142,-0.160719,-0.160524
0.042142,0.0471,0.052015,0.05683,0.061475,0.065875,0.069956,0.073644,0.076877,0.079599,0.08177,0.083362,0.084363,0.084776,0.084623,0.083935,0.082759,0.081154,0.079184,0.076918,0.074426,0.071773,0.069012,0.066182,0.063298,0.060418,0.057708,0.055314,0.05335,0.051894,0.05099,0.050652,0.050862,0.051576,0.052727,0.054224,0.055962,0.057821,0.059676,0.061399,0.062865,0.063962,0.064594,0.06469,0.064213,0.063166,0.061604,0.059642,0.057456,0.055136,0.052668,0.050067,0.047373,0.044648,0.04196,0.039381,0.036977,0.034808,0.032916,0.03133,0.030059,0.029092,0.0284,0.027935,0.027631,0.027414,0.027195,0.026887,0.026405,0.025672,0.024633,0.023262,0.021557,0.019441,0.01684,0.013738,0.010168,0.006194,0.001907,-0.002587,-0.007174,-0.011741,-0.016182,-0.020402,-0.02432,-0.027876,-0.031029,-0.033759,-0.03607,-0.037983,-0.039539,-0.04079,-0.041804,-0.042648,-0.043392,-0.044092,-0.044852,-0.045974,-0.047744,-0.050367,-0.053974,-0.058628,-0.064328,-0.071021,-0.078602,-0.086928,-0.09582,-0.105076,-0.114474,-0.123786,-0.132786,-0.141255,-0.148998,-0.155847,-0.161679,-0.166421,-0.170061,-0.172666,-0.174389,-0.175479,-0.176216,-0.176764,-0.177235,-0.177707,-0.178231,-0.178831,-0.179508,-0.180249,-0.18102,-0.181781,-0.182482,-0.18307,-0.183488,-0.183682,-0.183604,-0.183212,-0.182475,-0.181374,-0.179909,-0.178095,-0.175968,-0.173588,-0.171041,-0.168441,-0.165949,-0.163733,-0.161917,-0.160586,-0.159787,-0.159536
0.039262,0.044373,0.049467,0.054499,0.059403,0.064102,0.068512,0.072549,0.076135,0.079201,0.081691,0.083565,0.084804,0.085402,0.085376,0.084759,0.083602,0.081966,0.079927,0.077563,0.074956,0.072179,0.069298,0.066354,0.063365,0.060392,0.057623,0.055215,0.053289,0.051921,0.05115,0.050982,0.051388,0.052311,0.05367,0.055362,0.057268,0.059259,0.061201,0.062958,0.064403,0.06542,0.065915,0.065822,0.065108,0.063785,0.061919,0.059633,0.057119,0.054481,0.051725,0.048879,0.046001,0.043158,0.040425,0.037875,0.035572,0.03357,0.031901,0.030584,0.029611,0.028955,0.028571,0.028391,0.028333,0.028305,0.028208,0.027944,0.027423,0.026574,0.025351,0.023748,0.021793,0.019416,0.016539,0.013144,0.009266,0.004976,0.000371,-0.004435,-0.009323,-0.014173,-0.018872,-0.023322,-0.02744,-0.031164,-0.034454,-0.037294,-0.03969,-0.041669,-0.043276,-0.044573,-0.045629,-0.046518,-0.047311,-0.048065,-0.048879,-0.050053,-0.051867,-0.054519,-0.058134,-0.062767,-0.068412,-0.075008,-0.082449,-0.090586,-0.099244,-0.108218,-0.117294,-0.126247,-0.134858,-0.142918,-0.150238,-0.156662,-0.162072,-0.166403,-0.169649,-0.171876,-0.173234,-0.173964,-0.174348,-0.174576,-0.174783,-0.175065,-0.17548,-0.176057,-0.176794,-0.17767,-0.178643,-0.179659,-0.180653,-0.181554,-0.182288,-0.182786,-0.182981,-0.182818,-0.182252,-0.181256,-0.179824,-0.177969,-0.175734,-0.173188,-0.170435,-0.167612,-0.164906,-0.162496,-0.160519,-0.159062,-0.158179,-0.157884
0.035731,0.040982,0.04624,0.051476,0.05663,0.061624,0.066365,0.070759,0.074714,0.078148,0.080992,0.083193,0.08472,0.085561,0.085727,0.085249,0.084178,0.082581,0.080538,0.078138,0.07547,0.072619,0.069658,0.066637,0.063574,0.06054,0.057736,0.055333,0.053452,0.052172,0.051527,0.051514,0.052094,0.0532,0.054738,0.056596,0.058645,0.060745,0.062755,0.064536,0.065954,0.066896,0.067268,0.067005,0.066082,0.064519,0.062387,0.059822,0.057023,0.054111,0.051108,0.048062,0.045038,0.042114,0.039369,0.036877,0.0347,0.032884,0.031454,0.030414,0.029745,0.029404,0.029326,0.029428,0.029613,0.029773,0.029796,0.029577,0.029022,0.028063,0.026666,0.024846,0.022656,0.020031,0.016887,0.013204,0.009018,0.004405,-0.000534,-0.005677,-0.010896,-0.016066,-0.021067,-0.025795,-0.030163,-0.034107,-0.037585,-0.040582,-0.043106,-0.045188,-0.046877,-0.048238,-0.049349,-0.050287,-0.051127,-0.051928,-0.052789,-0.054004,-0.055848,-0.058512,-0.062114,-0.066701,-0.072261,-0.078731,-0.085999,-0.093918,-0.102311,-0.110977,-0.119706,-0.12828,-0.136486,-0.144124,-0.151014,-0.157008,-0.161997,-0.165921,-0.168779,-0.170636,-0.17164,-0.172022,-0.172063,-0.171978,-0.171924,-0.172009,-0.1723,-0.172829,-0.173592,-0.174563,-0.175691,-0.17691,-0.178142,-0.179301,-0.1803,-0.181052,-0.181477,-0.181506,-0.181085,-0.180177,-0.178771,-0.17688,-0.17455,-0.17186,-0.168928,-0.165912,-0.16302,-0.160444,-0.158327,-0.156765,-0.15581,-0.15548
0.031615,0.036986,0.042389,0.04781,0.053197,0.05847,0.06353,0.068276,0.072603,0.076415,0.079631,0.082187,0.084039,0.085168,0.085578,0.085296,0.084372,0.082876,0.080893,0.078515,0.075842,0.072966,0.069969,0.066909,0.063809,0.060746,0.057935,0.055556,0.053734,0.052545,0.052019,0.052147,0.052882,0.054149,0.055843,0.057844,0.060013,0.062205,0.064273,0.066072,0.067468,0.068346,0.068614,0.068211,0.067115,0.065353,0.063003,0.060208,0.057176,0.054041,0.050842,0.047641,0.044515,0.041549,0.038826,0.03642,0.03439,0.032775,0.031592,0.030834,0.030466,0.030433,0.030654,0.031029,0.031447,0.031786,0.031925,0.03175,0.031166,0.030107,0.028551,0.02653,0.024124,0.021271,0.017875,0.013917,0.009431,0.004496,-0.000781,-0.006271,-0.01184,-0.017354,-0.022688,-0.027729,-0.032385,-0.036589,-0.040296,-0.043489,-0.046177,-0.048392,-0.050188,-0.051633,-0.052808,-0.053798,-0.054682,-0.055524,-0.056423,-0.057671,-0.059535,-0.062198,-0.06577,-0.070295,-0.075755,-0.082081,-0.089161,-0.096848,-0.104965,-0.113316,-0.121695,-0.129889,-0.137695,-0.144918,-0.151389,-0.156966,-0.161548,-0.165081,-0.167566,-0.169071,-0.169737,-0.169787,-0.169501,-0.169115,-0.168802,-0.168682,-0.168829,-0.169277,-0.170022,-0.171033,-0.172253,-0.173605,-0.175001,-0.176345,-0.177535,-0.178473,-0.179067,-0.179237,-0.17892,-0.178074,-0.176681,-0.174754,-0.172342,-0.169531,-0.166449,-0.163273,-0.160227,-0.157513,-0.155281,-0.153633,-0.152622,-0.152265
0.027,0.032469,0.037994,0.043577,0.049171,0.054698,0.060056,0.065135,0.06982,0.074006,0.077598,0.08052,0.082718,0.084165,0.084856,0.084815,0.08409,0.082749,0.08088,0.07858,0.075953,0.073101,0.070113,0.067053,0.063952,0.060896,0.058108,0.055776,0.054026,0.052933,0.052524,0.052784,0.05366,0.055069,0.056901,0.059026,0.0613,0.063574,0.065694,0.067514,0.068899,0.069732,0.069923,0.069414,0.068188,0.066275,0.063759,0.06079,0.05758,0.054276,0.050935,0.047629,0.044446,0.041478,0.038809,0.036513,0.034647,0.033243,0.032309,0.031828,0.031753,0.032015,0.032518,0.03315,0.033786,0.034293,0.034539,0.034406,0.033797,0.032649,0.03095,0.02875,0.026151,0.02309,0.019466,0.015251,0.01048,0.005235,-0.000373,-0.00621,-0.012134,-0.018004,-0.023685,-0.029061,-0.034031,-0.038522,-0.042487,-0.045905,-0.048784,-0.051156,-0.053077,-0.054618,-0.055867,-0.05691,-0.057835,-0.058711,-0.059643,-0.060917,-0.062792,-0.065445,-0.06898,-0.073434,-0.078787,-0.084966,-0.091859,-0.099317,-0.107166,-0.115214,-0.123259,-0.131094,-0.138522,-0.145357,-0.151435,-0.156623,-0.160826,-0.163994,-0.166131,-0.167306,-0.167655,-0.167395,-0.166803,-0.166129,-0.16556,-0.165225,-0.165204,-0.165532,-0.166207,-0.167192,-0.168426,-0.169828,-0.1713,-0.172737,-0.17403,-0.17507,-0.175758,-0.176007,-0.175744,-0.174923,-0.173523,-0.171557,-0.169074,-0.166163,-0.162964,-0.159663,-0.156496,-0.153674,-0.151354,-0.149639,-0.148586,-0.148211
0.021987,0.027531,0.033152,0.038868,0.044639,0.050388,0.056013,0.061396,0.066416,0.070956,0.074911,0.078196,0.080747,0.082526,0.083523,0.083756,0.083267,0.082125,0.080416,0.078242,0.07571,0.072927,0.069989,0.066969,0.063904,0.06089,0.058156,0.055894,0.054231,0.053242,0.05295,0.053337,0.054344,0.055883,0.057838,0.060076,0.062447,0.064798,0.066973,0.068823,0.070212,0.071025,0.071171,0.070595,0.069284,0.06727,0.064643,0.061555,0.058226,0.054811,0.05138,0.04802,0.044824,0.04189,0.039305,0.037141,0.035451,0.034262,0.033574,0.033359,0.033561,0.034097,0.034862,0.035729,0.036563,0.037221,0.037564,0.037469,0.036839,0.035613,0.033789,0.031433,0.028664,0.025422,0.021592,0.017144,0.012111,0.006575,0.000651,-0.00552,-0.011792,-0.018015,-0.024047,-0.029763,-0.035058,-0.039851,-0.04409,-0.047751,-0.050838,-0.053383,-0.055442,-0.05709,-0.058416,-0.059514,-0.060476,-0.061382,-0.06234,-0.063633,-0.065513,-0.068152,-0.071648,-0.076033,-0.081283,-0.087324,-0.094043,-0.101291,-0.108898,-0.116672,-0.124415,-0.131929,-0.139018,-0.145505,-0.151231,-0.15607,-0.15993,-0.162767,-0.164589,-0.16546,-0.165518,-0.16497,-0.164094,-0.163147,-0.162326,-0.161766,-0.16155,-0.161716,-0.16226,-0.163147,-0.164312,-0.16567,-0.167119,-0.168549,-0.169846,-0.170896,-0.171594,-0.171848,-0.171582,-0.170745,-0.169315,-0.167302,-0.164756,-0.161769,-0.158483,-0.155091,-0.151837,-0.148937,-0.146553,-0.144792,-0.143711,-0.143325
0.016684,0.022279,0.027971,0.03379,0.039705,0.045641,0.051496,0.057147,0.062467,0.067331,0.071627,0.075259,0.078154,0.080268,0.081581,0.082106,0.08188,0.080969,0.079458,0.077449,0.075052,0.072379,0.069529,0.066585,0.063592,0.060652,0.058001,0.055831,0.054272,0.053395,0.053224,0.053735,0.054868,0.05653,0.058602,0.060946,0.063412,0.065842,0.068079,0.069972,0.071387,0.072206,0.072341,0.071739,0.070388,0.068323,0.065638,0.062488,0.059093,0.055621,0.052154,0.048785,0.045618,0.042752,0.040275,0.038259,0.036753,0.035778,0.035327,0.035364,0.035822,0.036609,0.037608,0.038685,0.039694,0.040484,0.040912,0.04085,0.040201,0.038909,0.036977,0.034487,0.031574,0.028175,0.024166,0.019512,0.014242,0.00844,0.002224,-0.004262,-0.010864,-0.017426,-0.0238,-0.029852,-0.03547,-0.040567,-0.045085,-0.048995,-0.052298,-0.055024,-0.057228,-0.058987,-0.060393,-0.061544,-0.062542,-0.063471,-0.064451,-0.065758,-0.067642,-0.070266,-0.073726,-0.078049,-0.08321,-0.089132,-0.095701,-0.102771,-0.11017,-0.117712,-0.125201,-0.13244,-0.139242,-0.145431,-0.150855,-0.155391,-0.158953,-0.161499,-0.163037,-0.163635,-0.163426,-0.162616,-0.161477,-0.160273,-0.159203,-0.158407,-0.157968,-0.157927,-0.158282,-0.158996,-0.160005,-0.161223,-0.162548,-0.163869,-0.165069,-0.166033,-0.166655,-0.166839,-0.16651,-0.165613,-0.164126,-0.162056,-0.159454,-0.15641,-0.153067,-0.149617,-0.146307,-0.143359,-0.140935,-0.139145,-0.138047,-0.137657
0.011195,0.01682,0.022559,0.028454,0.03448,0.040568,0.046614,0.052494,0.058077,0.063231,0.067837,0.071792,0.075016,0.077455,0.079084,0.079908,0.07996,0.079301,0.078014,0.0762,0.073971,0.071439,0.06871,0.065873,0.062981,0.060145,0.057602,0.055546,0.054105,0.053351,0.053305,0.053942,0.055199,0.056981,0.059168,0.061619,0.064181,0.066696,0.069006,0.070959,0.07242,0.073274,0.073431,0.072841,0.071491,0.069421,0.066725,0.063561,0.060151,0.05667,0.053211,0.049875,0.046771,0.044,0.041652,0.039796,0.038477,0.037711,0.037485,0.037755,0.038447,0.039459,0.040667,0.041927,0.043088,0.043992,0.044491,0.044457,0.04379,0.04244,0.040418,0.037815,0.03478,0.031247,0.027084,0.022249,0.01677,0.01073,0.004248,-0.002527,-0.009435,-0.016316,-0.023014,-0.029388,-0.035318,-0.040712,-0.045505,-0.049662,-0.053181,-0.056089,-0.05844,-0.060311,-0.061796,-0.063,-0.064028,-0.064978,-0.065974,-0.067294,-0.069179,-0.071792,-0.075223,-0.079497,-0.084586,-0.090414,-0.096865,-0.103793,-0.111027,-0.118384,-0.125668,-0.132688,-0.139256,-0.145202,-0.150375,-0.154658,-0.157965,-0.160257,-0.161546,-0.161898,-0.161447,-0.160396,-0.159016,-0.157569,-0.156253,-0.155209,-0.154522,-0.154233,-0.154342,-0.154814,-0.155586,-0.156576,-0.157683,-0.158799,-0.159807,-0.160596,-0.161059,-0.161104,-0.160653,-0.159655,-0.158084,-0.155949,-0.153294,-0.150211,-0.146835,-0.143356,-0.140018,-0.137045,-0.134602,-0.132799,-0.131695,-0.131305
0.005612,0.011251,0.017018,0.022965,0.029077,0.035286,0.04149,0.047564,0.053374,0.058785,0.063672,0.067925,0.071457,0.074207,0.076145,0.077267,0.077603,0.077207,0.07616,0.074561,0.07252,0.070153,0.06757,0.064863,0.062097,0.059386,0.056971,0.055044,0.053734,0.053112,0.053196,0.053962,0.055345,0.057248,0.05955,0.06211,0.064774,0.067382,0.069776,0.071806,0.073334,0.074245,0.074452,0.073904,0.07259,0.07055,0.06788,0.064739,0.061353,0.0579,0.054484,0.051212,0.048196,0.045541,0.043335,0.041646,0.040514,0.039951,0.039939,0.040426,0.04133,0.042545,0.043937,0.045359,0.046651,0.047652,0.048212,0.048199,0.047516,0.046117,0.044017,0.041316,0.038178,0.03453,0.030233,0.02524,0.019575,0.013321,0.006599,-0.00044,-0.007632,-0.014809,-0.02181,-0.028488,-0.034716,-0.040394,-0.045452,-0.049849,-0.053579,-0.056666,-0.059161,-0.061142,-0.062705,-0.063959,-0.065016,-0.065983,-0.066993,-0.068323,-0.070211,-0.072816,-0.076225,-0.080463,-0.085499,-0.091257,-0.09762,-0.104441,-0.111551,-0.118766,-0.125893,-0.132741,-0.139124,-0.144874,-0.149844,-0.153914,-0.157005,-0.159077,-0.160143,-0.160273,-0.159599,-0.158326,-0.156721,-0.155041,-0.153482,-0.152181,-0.151225,-0.150654,-0.150471,-0.150644,-0.151115,-0.151804,-0.152617,-0.153449,-0.154189,-0.154729,-0.154968,-0.154816,-0.154198,-0.153063,-0.151387,-0.149175,-0.146472,-0.143361,-0.139972,-0.136485,-0.13314,-0.130161,-0.127714,-0.12591,-0.124807,-0.12442
0.0,0.005643,0.011427,0.017414,0.023594,0.029904,0.036246,0.042493,0.048508,0.054155,0.059301,0.063834,0.067659,0.07071,0.072948,0.074365,0.074984,0.074856,0.074056,0.072681,0.07084,0.068651,0.066226,0.063663,0.061034,0.058461,0.056185,0.054398,0.053226,0.052741,0.05296,0.053857,0.055367,0.057394,0.059814,0.062486,0.065256,0.067964,0.070451,0.072567,0.074174,0.075158,0.075431,0.074943,0.073685,0.071696,0.069074,0.065979,0.062637,0.059234,0.05588,0.05269,0.049778,0.047249,0.045193,0.043673,0.042727,0.042363,0.042555,0.043247,0.044352,0.045755,0.047318,0.048887,0.050297,0.051386,0.051999,0.052004,0.051306,0.049861,0.04769,0.044903,0.041671,0.037919,0.033502,0.028364,0.022528,0.016075,0.009129,0.001843,-0.005615,-0.013072,-0.020361,-0.027329,-0.033842,-0.039794,-0.045108,-0.049738,-0.053674,-0.056935,-0.059571,-0.06166,-0.063299,-0.064602,-0.065686,-0.066667,-0.067689,-0.069028,-0.070919,-0.073519,-0.076913,-0.081124,-0.086121,-0.091824,-0.098119,-0.104857,-0.111869,-0.118971,-0.12597,-0.132677,-0.138907,-0.144491,-0.149284,-0.153169,-0.156066,-0.157938,-0.158799,-0.15872,-0.157835,-0.156349,-0.154528,-0.152621,-0.15082,-0.149257,-0.148018,-0.147145,-0.146643,-0.146484,-0.146615,-0.146962,-0.147435,-0.147936,-0.148362,-0.148611,-0.148586,-0.148202,-0.147389,-0.146097,-0.144301,-0.142008,-0.139256,-0.136124,-0.132732,-0.12925,-0.12591,-0.122935,-0.120493,-0.118694,-0.117596,-0.117215
-0.005609,3.4e-05,0.00583,0.01185,0.018092,0.024498,0.030968,0.037379,0.043592,0.049466,0.054866,0.059673,0.063787,0.067135,0.069672,0.071385,0.07229,0.072433,0.071885,0.07074,0.069107,0.067102,0.064842,0.06243,0.059946,0.057518,0.055388,0.053746,0.052719,0.052375,0.052733,0.053766,0.055408,0.057561,0.060102,0.062889,0.065767,0.068577,0.07116,0.073364,0.075053,0.076113,0.076457,0.076034,0.074836,0.072903,0.070334,0.06729,0.063999,0.060652,0.057366,0.054262,0.051457,0.049058,0.047152,0.045801,0.04504,0.044871,0.045264,0.046156,0.047454,0.049038,0.050763,0.052471,0.053993,0.055161,0.055821,0.055839,0.055122,0.053628,0.051385,0.048511,0.045185,0.04133,0.036791,0.03151,0.025504,0.018855,0.011687,0.004155,-0.003567,-0.011302,-0.018877,-0.026133,-0.03293,-0.039154,-0.044723,-0.049586,-0.053727,-0.057162,-0.05994,-0.062136,-0.063852,-0.065203,-0.066315,-0.067311,-0.068347,-0.069695,-0.071591,-0.074187,-0.077568,-0.081755,-0.086714,-0.092367,-0.098596,-0.105254,-0.112172,-0.119165,-0.126042,-0.132611,-0.138691,-0.144114,-0.148734,-0.152437,-0.155143,-0.156817,-0.157476,-0.157189,-0.156094,-0.154397,-0.152362,-0.150229,-0.148183,-0.146354,-0.144827,-0.143644,-0.142813,-0.14231,-0.142087,-0.142077,-0.142196,-0.142353,-0.142453,-0.142399,-0.1421,-0.141476,-0.140461,-0.139008,-0.137092,-0.134718,-0.13192,-0.128771,-0.125382,-0.12191,-0.11858,-0.115615,-0.113181,-0.111389,-0.110297,-0.109921
-0.011171,-0.005541,0.000253,0.006289,0.012574,0.019052,0.025628,0.03218,0.038568,0.044649,0.050285,0.055354,0.059749,0.063393,0.066233,0.068251,0.069456,0.069888,0.069614,0.068723,0.067323,0.06553,0.063462,0.061226,0.058911,0.056654,0.054694,0.053222,0.052361,0.052182,0.052699,0.053885,0.055673,0.057965,0.060637,0.063547,0.066539,0.069455,0.072136,0.07443,0.076203,0.077339,0.077755,0.0774,0.076266,0.074395,0.071887,0.068903,0.065672,0.062389,0.05918,0.05617,0.053478,0.051212,0.049456,0.048271,0.047687,0.047701,0.048278,0.049349,0.050816,0.052552,0.05441,0.056225,0.057826,0.059043,0.05972,0.059725,0.058965,0.057402,0.055071,0.052095,0.048661,0.044691,0.040019,0.034582,0.028396,0.021541,0.014142,0.006358,-0.001635,-0.009654,-0.017521,-0.02507,-0.032155,-0.038656,-0.044485,-0.049584,-0.053935,-0.057549,-0.060474,-0.062785,-0.064583,-0.06599,-0.067136,-0.068155,-0.069211,-0.070576,-0.072483,-0.075082,-0.078455,-0.082621,-0.087546,-0.093149,-0.099313,-0.105889,-0.112707,-0.119585,-0.12633,-0.132754,-0.138674,-0.143925,-0.148364,-0.151875,-0.154384,-0.155855,-0.156306,-0.15581,-0.154505,-0.152598,-0.150348,-0.147986,-0.145688,-0.143582,-0.141749,-0.140235,-0.139049,-0.138175,-0.137569,-0.137173,-0.136911,-0.1367,-0.136452,-0.136077,-0.135493,-0.134623,-0.133406,-0.131796,-0.129768,-0.127326,-0.1245,-0.121353,-0.117987,-0.114546,-0.111246,-0.108307,-0.105895,-0.104118,-0.103034,-0.102659
-0.016606,-0.011012,-0.005246,0.000777,0.007068,0.013579,0.020219,0.026868,0.03339,0.03964,0.045481,0.050785,0.055446,0.059378,0.062526,0.064861,0.066388,0.06714,0.067176,0.066582,0.065459,0.063922,0.062091,0.060076,0.057976,0.055932,0.054186,0.052925,0.052271,0.052291,0.053001,0.054369,0.056328,0.058779,0.061597,0.06464,0.067754,0.070779,0.073558,0.075942,0.077796,0.079009,0.079498,0.079213,0.07815,0.076351,0.073916,0.071007,0.067852,0.06465,0.061533,0.058629,0.05606,0.053932,0.052326,0.0513,0.050878,0.051052,0.051783,0.052996,0.054587,0.056427,0.058363,0.06023,0.061853,0.063064,0.063706,0.06365,0.062805,0.061139,0.058689,0.055585,0.052021,0.047911,0.043086,0.037475,0.031092,0.024017,0.016376,0.008331,6e-05,-0.008249,-0.016412,-0.024257,-0.031632,-0.038412,-0.044502,-0.049842,-0.054406,-0.058205,-0.061283,-0.063716,-0.065607,-0.06708,-0.068273,-0.069328,-0.070416,-0.071812,-0.073741,-0.076355,-0.079729,-0.083883,-0.088778,-0.094333,-0.100429,-0.106917,-0.113629,-0.12038,-0.126981,-0.133243,-0.138988,-0.144051,-0.148291,-0.151597,-0.153895,-0.155154,-0.155393,-0.154685,-0.153171,-0.151055,-0.148591,-0.145996,-0.143437,-0.141033,-0.138869,-0.136989,-0.13541,-0.134121,-0.133088,-0.132262,-0.131578,-0.130962,-0.130335,-0.129618,-0.128733,-0.127612,-0.126195,-0.124439,-0.122319,-0.119835,-0.117009,-0.113899,-0.110592,-0.107219,-0.103983,-0.101101,-0.098734,-0.096987,-0.095917,-0.095536
-0.021808,-0.016279,-0.010576,-0.004607,0.001643,0.008134,0.014781,0.02147,0.028067,0.034433,0.040433,0.045937,0.050838,0.055046,0.0585,0.061166,0.06304,0.064147,0.064538,0.064291,0.063501,0.062279,0.060743,0.059007,0.057177,0.055404,0.053927,0.052929,0.052532,0.052798,0.05374,0.055324,0.057482,0.060113,0.063092,0.066278,0.069517,0.072651,0.075526,0.077994,0.079926,0.081211,0.081771,0.081559,0.080572,0.078856,0.076509,0.073694,0.070635,0.067533,0.064526,0.061746,0.059312,0.057327,0.05587,0.054993,0.054713,0.055019,0.055864,0.05717,0.058829,0.060707,0.062652,0.064497,0.06607,0.067203,0.067742,0.067563,0.066579,0.064762,0.062155,0.058891,0.055165,0.050887,0.045882,0.040075,0.033478,0.02617,0.018278,0.009965,0.001414,-0.007183,-0.015637,-0.023773,-0.031432,-0.038485,-0.044831,-0.050407,-0.055183,-0.059166,-0.062401,-0.064963,-0.066956,-0.068508,-0.069762,-0.070869,-0.072006,-0.073448,-0.075416,-0.078057,-0.081446,-0.085596,-0.090467,-0.095976,-0.102002,-0.108397,-0.114991,-0.121602,-0.128041,-0.134123,-0.139671,-0.144524,-0.148546,-0.151629,-0.153703,-0.154738,-0.154757,-0.153836,-0.152113,-0.149793,-0.147118,-0.144287,-0.141454,-0.138734,-0.136207,-0.133924,-0.131907,-0.130156,-0.128648,-0.127344,-0.126193,-0.125134,-0.124099,-0.123018,-0.121823,-0.120449,-0.118843,-0.116962,-0.114778,-0.112287,-0.109504,-0.106474,-0.103273,-0.100015,-0.096889,-0.094104,-0.091813,-0.090117,-0.089068,-0.088678
-0.026661,-0.02123,-0.015628,-0.009761,-0.003606,0.002803,0.009389,0.016046,0.02265,0.029069,0.035169,0.040827,0.045933,0.050397,0.054153,0.057159,0.059403,0.060901,0.061694,0.061849,0.061453,0.06061,0.059434,0.058043,0.056547,0.055109,0.053962,0.053287,0.053201,0.053761,0.054977,0.056813,0.059197,0.062028,0.06518,0.068514,0.071877,0.075114,0.078075,0.080618,0.082615,0.083964,0.084589,0.084449,0.083544,0.08192,0.079679,0.076977,0.074036,0.071057,0.068181,0.065541,0.063254,0.061419,0.060109,0.059369,0.05921,0.059613,0.060527,0.061869,0.063529,0.065373,0.067247,0.068988,0.070426,0.071399,0.071759,0.071387,0.070202,0.068182,0.065373,0.061911,0.057988,0.053512,0.048299,0.042274,0.035446,0.027894,0.019747,0.01117,0.002347,-0.006525,-0.015256,-0.023665,-0.031589,-0.038896,-0.045482,-0.051278,-0.056255,-0.060416,-0.063805,-0.066498,-0.068601,-0.070244,-0.071575,-0.07275,-0.073954,-0.075458,-0.077482,-0.080166,-0.083581,-0.087737,-0.092591,-0.098056,-0.10401,-0.110304,-0.116769,-0.123223,-0.129481,-0.13536,-0.140689,-0.14531,-0.149092,-0.151932,-0.153765,-0.154566,-0.154359,-0.153223,-0.151294,-0.148774,-0.145893,-0.142825,-0.139709,-0.136653,-0.133736,-0.131015,-0.12852,-0.126262,-0.124233,-0.12241,-0.120755,-0.119222,-0.117757,-0.116299,-0.114791,-0.113175,-0.111399,-0.109421,-0.107211,-0.104756,-0.102063,-0.099166,-0.096124,-0.093033,-0.090069,-0.087426,-0.085247,-0.083626,-0.082611,-0.082211
-0.031044,-0.025749,-0.02029,-0.014573,-0.008573,-0.002315,0.004136,0.010685,0.01722,0.023618,0.029754,0.03551,0.04078,0.045472,0.049517,0.052867,0.055502,0.057424,0.058664,0.059275,0.059334,0.058935,0.058186,0.057205,0.056111,0.055072,0.05432,0.054028,0.054308,0.05521,0.056741,0.05886,0.061493,0.064538,0.067871,0.07135,0.07483,0.078158,0.08119,0.083789,0.085836,0.087235,0.087915,0.087842,0.087021,0.0855,0.083378,0.080811,0.07801,0.075175,0.07245,0.069967,0.06784,0.066161,0.064995,0.064377,0.064314,0.064778,0.065713,0.067032,0.068624,0.070356,0.072076,0.073625,0.074842,0.07557,0.075669,0.07503,0.07358,0.071302,0.068246,0.064546,0.060391,0.055682,0.050235,0.043971,0.036902,0.029103,0.020706,0.011876,0.002801,-0.006322,-0.0153,-0.023949,-0.032106,-0.039634,-0.046429,-0.052419,-0.057573,-0.061896,-0.065429,-0.06825,-0.070466,-0.072209,-0.07363,-0.07489,-0.076177,-0.077761,-0.079856,-0.082598,-0.086052,-0.090224,-0.095065,-0.100488,-0.106367,-0.112552,-0.118874,-0.125155,-0.131212,-0.136867,-0.141952,-0.146318,-0.149838,-0.152416,-0.153993,-0.154548,-0.154111,-0.152759,-0.15063,-0.147917,-0.144836,-0.141533,-0.138128,-0.134722,-0.131394,-0.128207,-0.125201,-0.122403,-0.119819,-0.117446,-0.115262,-0.113237,-0.111331,-0.109498,-0.107688,-0.105849,-0.103932,-0.101894,-0.099702,-0.097333,-0.094784,-0.092073,-0.089245,-0.086377,-0.083627,-0.081173,-0.079145,-0.077627,-0.076661,-0.076253
-0.034849,-0.029725,-0.02445,-0.018936,-0.013151,-0.007112,-0.000872,0.005489,0.011874,0.018174,0.024275,0.030069,0.035454,0.040341,0.044657,0.048348,0.051385,0.053759,0.055485,0.056602,0.057173,0.057279,0.057022,0.056516,0.055887,0.055312,0.055016,0.055165,0.05586,0.05715,0.05903,0.061459,0.064358,0.067625,0.071136,0.074754,0.078335,0.081734,0.084814,0.087447,0.089521,0.09095,0.091671,0.091658,0.090919,0.089507,0.087519,0.085104,0.082463,0.079792,0.077238,0.074928,0.072972,0.071453,0.070425,0.069917,0.069924,0.070412,0.071319,0.072556,0.074012,0.075554,0.077038,0.07831,0.079218,0.079616,0.079376,0.078398,0.07662,0.074029,0.070681,0.066705,0.062283,0.057311,0.051606,0.045089,0.03777,0.02973,0.021097,0.012039,0.002743,-0.006593,-0.015774,-0.024617,-0.032958,-0.04066,-0.047618,-0.053762,-0.05906,-0.063517,-0.067177,-0.070115,-0.072441,-0.07429,-0.075812,-0.077171,-0.078557,-0.080235,-0.082415,-0.085228,-0.088732,-0.092927,-0.097761,-0.103141,-0.108941,-0.115008,-0.121177,-0.127268,-0.133105,-0.138513,-0.143333,-0.147421,-0.150658,-0.152957,-0.154264,-0.154566,-0.153894,-0.152329,-0.150005,-0.147109,-0.143836,-0.140303,-0.136609,-0.132846,-0.129095,-0.125423,-0.121888,-0.118528,-0.115373,-0.112434,-0.109712,-0.107194,-0.104854,-0.10266,-0.100571,-0.098542,-0.096524,-0.094472,-0.092346,-0.090115,-0.087763,-0.085293,-0.082732,-0.080141,-0.077656,-0.075437,-0.073599,-0.072213,-0.071314,-0.070903
-0.037982,-0.033063,-0.028012,-0.022748,-0.017237,-0.011485,-0.005531,0.000564,0.006719,0.012843,0.018837,0.024605,0.030053,0.035094,0.039656,0.04368,0.047124,0.049968,0.052211,0.053875,0.055007,0.055673,0.055965,0.055993,0.05589,0.055837,0.056052,0.056692,0.057849,0.059561,0.06182,0.064576,0.067752,0.071241,0.074921,0.078661,0.082321,0.085766,0.088865,0.091501,0.093575,0.09501,0.095753,0.095787,0.095127,0.093826,0.091982,0.089735,0.087272,0.084783,0.082414,0.080291,0.078514,0.077157,0.076263,0.075848,0.0759,0.076377,0.077211,0.078311,0.079565,0.080846,0.082015,0.08293,0.083449,0.08344,0.082787,0.081403,0.079236,0.076284,0.072601,0.068315,0.063594,0.058332,0.052348,0.045568,0.038003,0.029733,0.020888,0.011635,0.002163,-0.007334,-0.016661,-0.025637,-0.0341,-0.041915,-0.04898,-0.055225,-0.060621,-0.065176,-0.068933,-0.071972,-0.074401,-0.076355,-0.077986,-0.079455,-0.08095,-0.082734,-0.085011,-0.087903,-0.091465,-0.095689,-0.100518,-0.105855,-0.111571,-0.117513,-0.123515,-0.129402,-0.135001,-0.140144,-0.144678,-0.148469,-0.151406,-0.153411,-0.154438,-0.15448,-0.153573,-0.151799,-0.149288,-0.146221,-0.142768,-0.139013,-0.135035,-0.130916,-0.126739,-0.12258,-0.118509,-0.114586,-0.110858,-0.107359,-0.104109,-0.101113,-0.098363,-0.095839,-0.093509,-0.091331,-0.089259,-0.087243,-0.085237,-0.083197,-0.081095,-0.078916,-0.076672,-0.074405,-0.072232,-0.070291,-0.068679,-0.067455,-0.066642,-0.066239
-0.04037,-0.035687,-0.030897,-0.025927,-0.020743,-0.01534,-0.009741,-0.003987,0.001862,0.007734,0.013551,0.019229,0.024685,0.029839,0.034616,0.038954,0.042803,0.046126,0.048907,0.05115,0.052881,0.054152,0.055041,0.055654,0.056126,0.056646,0.057419,0.058592,0.060245,0.062408,0.065064,0.068159,0.071611,0.075313,0.079148,0.082987,0.086698,0.090155,0.093239,0.095846,0.097888,0.0993,0.100044,0.100109,0.099519,0.09833,0.096635,0.094567,0.092296,0.090001,0.08783,0.085903,0.084311,0.083114,0.082347,0.082012,0.082086,0.082518,0.083237,0.084148,0.085143,0.086099,0.086887,0.087374,0.087433,0.086947,0.085816,0.083968,0.081362,0.078004,0.073951,0.069324,0.064277,0.058703,0.052427,0.04538,0.037576,0.029097,0.020074,0.010672,0.001077,-0.008518,-0.017923,-0.02696,-0.035471,-0.043327,-0.050428,-0.056712,-0.062151,-0.066758,-0.070578,-0.073691,-0.076209,-0.078263,-0.080005,-0.081591,-0.083203,-0.0851,-0.087479,-0.090458,-0.094083,-0.098338,-0.103163,-0.108455,-0.114081,-0.11989,-0.125714,-0.131384,-0.13673,-0.141591,-0.145824,-0.149302,-0.151926,-0.153626,-0.154366,-0.154145,-0.153006,-0.151029,-0.148343,-0.145116,-0.141497,-0.137533,-0.133282,-0.128818,-0.124224,-0.119588,-0.114994,-0.110522,-0.106241,-0.102205,-0.098455,-0.095017,-0.091898,-0.089089,-0.086566,-0.084292,-0.08222,-0.080295,-0.078461,-0.076664,-0.074859,-0.073016,-0.07113,-0.069228,-0.067407,-0.065781,-0.064428,-0.063392,-0.062688,-0.062306
-0.041968,-0.037548,-0.033049,-0.028411,-0.0236,-0.018601,-0.013418,-0.008072,-0.002598,0.002954,0.008527,0.014054,0.019465,0.024686,0.029645,0.034275,0.038515,0.042317,0.045647,0.048487,0.050845,0.052754,0.054277,0.055513,0.056601,0.057731,0.059099,0.060836,0.063011,0.065642,0.068704,0.072138,0.075857,0.079758,0.083724,0.087632,0.091361,0.094794,0.097826,0.100366,0.10234,0.1037,0.104418,0.104497,0.103965,0.102883,0.10134,0.099457,0.097385,0.095293,0.093327,0.091601,0.090194,0.089157,0.088508,0.088237,0.088311,0.088671,0.089238,0.08992,0.090607,0.091185,0.091534,0.091535,0.091077,0.090058,0.088396,0.086036,0.08295,0.079151,0.074699,0.069707,0.064313,0.058411,0.051836,0.044525,0.036498,0.027839,0.018677,0.009178,-0.000476,-0.010098,-0.019503,-0.028519,-0.036996,-0.044811,-0.051873,-0.058124,-0.063544,-0.068149,-0.07199,-0.075147,-0.077733,-0.079878,-0.081727,-0.083431,-0.085162,-0.087174,-0.089659,-0.092725,-0.096413,-0.1007,-0.105518,-0.11076,-0.116291,-0.121958,-0.127596,-0.133037,-0.138118,-0.142687,-0.146606,-0.149761,-0.152063,-0.153453,-0.153902,-0.153421,-0.152054,-0.149884,-0.147035,-0.143665,-0.139895,-0.135738,-0.131232,-0.126441,-0.121452,-0.116363,-0.111276,-0.106288,-0.10149,-0.09696,-0.092759,-0.08893,-0.085497,-0.08246,-0.079804,-0.077494,-0.07548,-0.073702,-0.072092,-0.070584,-0.069117,-0.067647,-0.066152,-0.064646,-0.063207,-0.061925,-0.060859,-0.060036,-0.05946,-0.059117
-0.042761,-0.038624,-0.03444,-0.030165,-0.025765,-0.021214,-0.016497,-0.011614,-0.006573,-0.0014,0.00387,0.009191,0.014505,0.019749,0.024853,0.029747,0.034361,0.038632,0.042508,0.045953,0.048951,0.051517,0.053698,0.055583,0.057313,0.05908,0.061066,0.063386,0.066096,0.069201,0.072668,0.076431,0.080403,0.084479,0.088547,0.092492,0.096201,0.099571,0.102511,0.104945,0.106816,0.108091,0.108757,0.108827,0.108339,0.107355,0.105961,0.104264,0.102395,0.100508,0.098749,0.097223,0.096,0.095116,0.094576,0.094356,0.094411,0.094674,0.095062,0.09548,0.095823,0.095983,0.095851,0.095323,0.094303,0.09271,0.09048,0.087572,0.083975,0.079711,0.074839,0.069465,0.063711,0.057472,0.050597,0.043033,0.034805,0.026,0.016748,0.00721,-0.002436,-0.012008,-0.02133,-0.030239,-0.038595,-0.046284,-0.053224,-0.059366,-0.064699,-0.069245,-0.073058,-0.076224,-0.078852,-0.081071,-0.08302,-0.084836,-0.086684,-0.088807,-0.091393,-0.094544,-0.09829,-0.102605,-0.107411,-0.112598,-0.118028,-0.123546,-0.12899,-0.134195,-0.139003,-0.143271,-0.146871,-0.149698,-0.151675,-0.152753,-0.152915,-0.152178,-0.150593,-0.148242,-0.145244,-0.141747,-0.137844,-0.133516,-0.128778,-0.123689,-0.118338,-0.112834,-0.107295,-0.101841,-0.096582,-0.091617,-0.087029,-0.082876,-0.079196,-0.076001,-0.073279,-0.070997,-0.069101,-0.067522,-0.066184,-0.065004,-0.063909,-0.062837,-0.061754,-0.060665,-0.059628,-0.058711,-0.057952,-0.057362,-0.056934,-0.056649
-0.042762,-0.038923,-0.035071,-0.031181,-0.027218,-0.023147,-0.018934,-0.014555,-0.009993,-0.005247,-0.000327,0.00474,0.009914,0.015139,0.02035,0.025476,0.030438,0.035159,0.039569,0.043612,0.047251,0.050478,0.053325,0.055872,0.058257,0.060674,0.063287,0.066196,0.069441,0.073016,0.076876,0.080952,0.085153,0.089376,0.093513,0.097457,0.101108,0.104376,0.107183,0.109473,0.111206,0.112364,0.11295,0.11299,0.112528,0.11163,0.110376,0.108862,0.107191,0.105505,0.103948,0.102618,0.101573,0.100834,0.100391,0.100209,0.10023,0.100378,0.100566,0.100697,0.100671,0.100387,0.099747,0.098664,0.097057,0.094865,0.092043,0.088568,0.084443,0.079698,0.074395,0.068632,0.062511,0.055933,0.048764,0.040963,0.032562,0.023651,0.014359,0.004844,-0.004722,-0.014166,-0.023321,-0.032036,-0.040182,-0.047658,-0.054393,-0.06035,-0.065526,-0.069951,-0.073687,-0.07682,-0.079461,-0.081734,-0.083767,-0.085687,-0.087641,-0.089866,-0.092545,-0.095771,-0.099568,-0.103901,-0.108688,-0.113813,-0.119135,-0.124498,-0.129742,-0.134705,-0.139238,-0.143202,-0.146481,-0.148982,-0.150637,-0.151409,-0.151291,-0.150308,-0.148516,-0.145999,-0.14287,-0.139263,-0.135249,-0.130773,-0.125832,-0.12048,-0.114809,-0.108941,-0.103009,-0.097152,-0.091501,-0.086176,-0.081277,-0.076879,-0.07303,-0.069751,-0.067035,-0.064845,-0.063125,-0.061795,-0.060768,-0.059949,-0.059247,-0.058589,-0.057929,-0.057264,-0.056638,-0.056096,-0.055656,-0.055314,-0.055052,-0.054845
-0.042016,-0.038482,-0.034972,-0.031478,-0.027967,-0.024395,-0.02071,-0.016861,-0.012808,-0.008521,-0.003986,0.00079,0.005785,0.010954,0.016238,0.021562,0.026841,0.031985,0.036907,0.04153,0.045795,0.049675,0.053182,0.056386,0.059425,0.062489,0.065727,0.069217,0.072986,0.077013,0.081247,0.08561,0.090011,0.094348,0.098518,0.102425,0.105979,0.109105,0.111743,0.113853,0.115414,0.116424,0.116903,0.116889,0.116435,0.115607,0.114481,0.113137,0.111656,0.110162,0.108797,0.107653,0.106774,0.106168,0.105812,0.105656,0.10563,0.105651,0.105627,0.10546,0.105053,0.104314,0.103157,0.101508,0.099306,0.096508,0.093087,0.08904,0.084382,0.079154,0.073419,0.067265,0.060779,0.053869,0.046421,0.038405,0.029862,0.020886,0.011607,0.002177,-0.00724,-0.016479,-0.025386,-0.033823,-0.041674,-0.048853,-0.055302,-0.060998,-0.065949,-0.070194,-0.0738,-0.076859,-0.079479,-0.081778,-0.083877,-0.085885,-0.087929,-0.090242,-0.092999,-0.096286,-0.100121,-0.104461,-0.109218,-0.114272,-0.119478,-0.124681,-0.129721,-0.134442,-0.138699,-0.142363,-0.145327,-0.147507,-0.148849,-0.149325,-0.148941,-0.147727,-0.145744,-0.143078,-0.139835,-0.13614,-0.132035,-0.127437,-0.122328,-0.116755,-0.110817,-0.104644,-0.098388,-0.092203,-0.086242,-0.080642,-0.075518,-0.07096,-0.067026,-0.063742,-0.061102,-0.059069,-0.057577,-0.05654,-0.055856,-0.055417,-0.055121,-0.05488,-0.05464,-0.054393,-0.054176,-0.054008,-0.053891,-0.053805,-0.053724,-0.053615
-0.040593,-0.037366,-0.0342,-0.031103,-0.028049,-0.02498,-0.021829,-0.018521,-0.01499,-0.011179,-0.007051,-0.002588,0.0022,0.007284,0.012607,0.018095,0.023657,0.02919,0.034592,0.039764,0.044629,0.049138,0.053286,0.057131,0.060806,0.064502,0.068345,0.072396,0.076665,0.081119,0.085697,0.090316,0.094882,0.099298,0.103466,0.107299,0.11072,0.113669,0.116104,0.118001,0.119359,0.120195,0.120542,0.120451,0.119983,0.119207,0.118192,0.117003,0.115695,0.114378,0.11319,0.112215,0.111488,0.111002,0.11072,0.110578,0.110498,0.110386,0.110146,0.10968,0.108895,0.107706,0.106038,0.103831,0.101043,0.097648,0.093639,0.089029,0.083847,0.078145,0.071986,0.065451,0.05861,0.051382,0.043672,0.035468,0.026819,0.017822,0.008607,-0.00068,-0.009881,-0.018845,-0.027429,-0.03551,-0.042989,-0.049794,-0.055884,-0.061249,-0.065911,-0.069918,-0.073345,-0.076285,-0.078849,-0.081146,-0.083286,-0.085359,-0.087474,-0.089853,-0.092667,-0.095998,-0.099853,-0.104185,-0.108899,-0.11387,-0.118953,-0.123992,-0.128827,-0.133308,-0.137294,-0.140666,-0.143324,-0.145197,-0.146241,-0.146439,-0.145804,-0.144378,-0.142224,-0.139428,-0.136093,-0.132328,-0.128156,-0.123466,-0.118226,-0.11248,-0.106332,-0.099924,-0.09342,-0.086993,-0.08081,-0.075026,-0.069769,-0.065141,-0.061206,-0.057994,-0.0555,-0.05368,-0.052463,-0.051752,-0.051433,-0.051385,-0.051492,-0.051658,-0.051823,-0.05198,-0.052154,-0.052349,-0.05255,-0.052724,-0.052833,-0.052842
-0.038589,-0.035665,-0.032835,-0.030129,-0.027521,-0.024947,-0.02232,-0.019547,-0.016533,-0.013198,-0.009481,-0.005344,-0.000777,0.004198,0.009533,0.015154,0.020962,0.026846,0.032687,0.038369,0.043795,0.048895,0.05365,0.058104,0.062387,0.066683,0.0711,0.07568,0.080415,0.085261,0.090146,0.094984,0.09968,0.104138,0.108268,0.111993,0.115249,0.117991,0.120193,0.121852,0.122983,0.12362,0.123813,0.123623,0.123121,0.122376,0.121451,0.120396,0.11924,0.118078,0.117046,0.116221,0.115626,0.115244,0.115023,0.114887,0.114747,0.114503,0.114053,0.113298,0.11215,0.110529,0.108372,0.105633,0.102285,0.09832,0.093749,0.088599,0.082917,0.076759,0.070194,0.063295,0.056117,0.048591,0.040646,0.032284,0.023565,0.014589,0.005486,-0.003604,-0.012532,-0.021157,-0.029354,-0.037014,-0.044053,-0.050419,-0.056086,-0.06106,-0.065375,-0.069091,-0.072292,-0.075073,-0.077543,-0.079806,-0.081958,-0.084071,-0.086229,-0.088649,-0.091496,-0.094845,-0.0987,-0.103004,-0.107659,-0.112537,-0.11749,-0.12236,-0.126992,-0.131237,-0.134962,-0.138054,-0.140424,-0.142009,-0.142774,-0.142715,-0.141854,-0.140237,-0.137934,-0.13503,-0.131623,-0.127812,-0.123597,-0.118846,-0.113515,-0.107648,-0.101353,-0.094782,-0.088113,-0.081531,-0.07522,-0.069347,-0.06405,-0.05944,-0.055586,-0.05252,-0.050232,-0.048676,-0.04777,-0.047408,-0.047463,-0.047802,-0.0483,-0.048852,-0.049396,-0.049926,-0.050465,-0.051002,-0.051506,-0.051935,-0.052241,-0.052384
-0.036118,-0.033484,-0.030978,-0.028645,-0.026463,-0.02436,-0.022234,-0.019971,-0.017453,-0.014578,-0.011261,-0.007445,-0.003105,0.001749,0.007075,0.012798,0.018817,0.025009,0.031243,0.037388,0.043325,0.04897,0.054285,0.059303,0.06415,0.069004,0.073952,0.079017,0.084174,0.089369,0.09452,0.099537,0.104325,0.10879,0.11285,0.116437,0.119501,0.122012,0.123961,0.125361,0.126245,0.126665,0.126685,0.126378,0.125821,0.125084,0.124225,0.123278,0.122248,0.121215,0.120313,0.119613,0.11913,0.118833,0.118659,0.118522,0.118322,0.117951,0.117303,0.116281,0.114796,0.112776,0.110168,0.106937,0.103072,0.098579,0.093485,0.087835,0.081685,0.075103,0.068159,0.060919,0.053429,0.045632,0.037481,0.028994,0.020242,0.011327,0.002378,-0.006468,-0.015075,-0.023313,-0.03107,-0.038255,-0.044804,-0.050678,-0.055871,-0.060404,-0.064325,-0.067707,-0.070638,-0.073221,-0.075561,-0.077756,-0.079888,-0.082009,-0.08418,-0.086611,-0.089461,-0.092803,-0.096631,-0.100886,-0.105466,-0.110238,-0.115052,-0.119752,-0.124184,-0.128202,-0.131679,-0.134509,-0.13661,-0.13793,-0.138444,-0.138154,-0.137092,-0.135311,-0.132884,-0.129896,-0.12644,-0.122604,-0.11837,-0.11359,-0.108211,-0.102277,-0.0959,-0.089241,-0.08249,-0.075844,-0.069498,-0.063627,-0.058381,-0.053873,-0.050176,-0.04732,-0.045291,-0.044037,-0.043468,-0.043465,-0.043891,-0.044603,-0.045467,-0.046372,-0.047256,-0.04812,-0.048987,-0.049834,-0.05062,-0.051291,-0.051796,-0.052086
-0.033302,-0.030943,-0.02874,-0.026756,-0.024969,-0.023301,-0.021638,-0.019845,-0.017787,-0.015339,-0.012395,-0.008883,-0.004762,-3.2e-05,0.00527,0.011071,0.017265,0.023723,0.030301,0.036852,0.043245,0.049376,0.055194,0.060722,0.066079,0.071436,0.076861,0.082358,0.087887,0.093382,0.098754,0.103908,0.108749,0.113189,0.117151,0.120577,0.123429,0.125691,0.127372,0.128501,0.129128,0.129318,0.129151,0.12871,0.128078,0.127326,0.126506,0.125639,0.124704,0.12377,0.122969,0.122367,0.12197,0.121739,0.121599,0.121454,0.121196,0.120709,0.119886,0.118624,0.11684,0.114466,0.111457,0.107788,0.10346,0.098495,0.092933,0.086831,0.080259,0.073291,0.066002,0.058453,0.050683,0.042648,0.034324,0.025746,0.016994,0.008177,-0.000582,-0.009149,-0.017398,-0.025212,-0.032494,-0.039169,-0.045189,-0.050536,-0.055218,-0.059274,-0.062767,-0.065778,-0.068405,-0.070754,-0.072929,-0.075022,-0.077101,-0.079195,-0.081345,-0.083753,-0.086574,-0.089877,-0.093652,-0.097835,-0.10232,-0.106973,-0.111641,-0.11617,-0.120406,-0.124208,-0.127454,-0.130043,-0.131902,-0.132985,-0.133276,-0.132786,-0.131554,-0.129637,-0.127112,-0.124065,-0.120583,-0.116745,-0.112518,-0.107741,-0.102357,-0.096409,-0.090015,-0.083344,-0.076593,-0.069969,-0.063676,-0.057896,-0.052783,-0.048453,-0.044978,-0.042386,-0.040658,-0.039733,-0.039511,-0.039865,-0.040648,-0.041706,-0.042899,-0.044114,-0.045291,-0.046441,-0.047591,-0.048708,-0.049745,-0.050641,-0.051339,-0.051787
-0.030269,-0.028164,-0.02624,-0.024572,-0.023141,-0.021863,-0.020611,-0.019237,-0.017587,-0.015518,-0.012908,-0.009669,-0.005748,-0.001135,0.004136,0.009995,0.016333,0.023013,0.029882,0.036782,0.043566,0.050119,0.056376,0.062348,0.068152,0.07395,0.07979,0.08566,0.091505,0.097247,0.102792,0.108042,0.112902,0.117286,0.121126,0.124373,0.127,0.129006,0.130413,0.131266,0.13163,0.131585,0.131221,0.130633,0.129907,0.129117,0.128309,0.127488,0.126617,0.125748,0.125016,0.124483,0.124147,0.123961,0.123842,0.123685,0.123373,0.122787,0.121813,0.12035,0.118313,0.115639,0.112288,0.108246,0.103523,0.098151,0.092184,0.08569,0.078748,0.071442,0.063847,0.056026,0.048011,0.039775,0.031314,0.022681,0.013962,0.00527,-0.00327,-0.011533,-0.019401,-0.026769,-0.033555,-0.0397,-0.045173,-0.049973,-0.054125,-0.057683,-0.060723,-0.063339,-0.065635,-0.067721,-0.0697,-0.071656,-0.073645,-0.075677,-0.07777,-0.080118,-0.082876,-0.086107,-0.0898,-0.093886,-0.098258,-0.102777,-0.107293,-0.11165,-0.115698,-0.119297,-0.122331,-0.124704,-0.126348,-0.127226,-0.127328,-0.126672,-0.125302,-0.12328,-0.120686,-0.117605,-0.114121,-0.110303,-0.106108,-0.101367,-0.096019,-0.09011,-0.083762,-0.077149,-0.070475,-0.063956,-0.057797,-0.052186,-0.047279,-0.043191,-0.039992,-0.037705,-0.036304,-0.03572,-0.035846,-0.036542,-0.037654,-0.039022,-0.040499,-0.041974,-0.04339,-0.044771,-0.046149,-0.047491,-0.048742,-0.04984,-0.050722,-0.051332
-0.027136,-0.025262,-0.023588,-0.022199,-0.021078,-0.020137,-0.019237,-0.01822,-0.016916,-0.015168,-0.012842,-0.009834,-0.006084,-0.001575,0.003667,0.009569,0.016021,0.022882,0.029991,0.03718,0.04429,0.051195,0.05782,0.064168,0.07035,0.07652,0.082709,0.088887,0.094988,0.100924,0.106595,0.111901,0.116746,0.12105,0.124751,0.127807,0.130204,0.131952,0.133087,0.133666,0.133769,0.133487,0.132923,0.132177,0.131342,0.130492,0.129666,0.12886,0.128016,0.12718,0.126484,0.125988,0.125686,0.125525,0.125415,0.125242,0.124885,0.124218,0.123124,0.121501,0.119262,0.116349,0.112725,0.108382,0.103337,0.097632,0.09133,0.08451,0.077257,0.069663,0.061808,0.053756,0.045537,0.037138,0.028577,0.019921,0.011264,0.002723,-0.00558,-0.013524,-0.021,-0.027916,-0.034201,-0.039814,-0.044738,-0.048988,-0.052605,-0.055658,-0.058236,-0.060441,-0.062388,-0.064187,-0.065941,-0.067729,-0.069594,-0.071526,-0.073524,-0.075776,-0.078435,-0.081562,-0.085143,-0.089108,-0.093346,-0.09772,-0.102078,-0.106264,-0.110131,-0.113543,-0.116386,-0.118569,-0.12003,-0.120737,-0.120685,-0.119897,-0.118423,-0.116329,-0.113695,-0.110605,-0.107142,-0.103368,-0.09923,-0.094555,-0.089283,-0.083462,-0.077217,-0.070728,-0.064203,-0.057859,-0.051906,-0.046531,-0.04189,-0.038095,-0.035211,-0.033255,-0.032195,-0.031953,-0.032411,-0.033425,-0.03483,-0.036462,-0.038172,-0.039849,-0.041446,-0.042998,-0.044549,-0.046065,-0.047491,-0.048762,-0.049813,-0.050587
-0.024,-0.022332,-0.020879,-0.019731,-0.018872,-0.018209,-0.017598,-0.016869,-0.015844,-0.014353,-0.012251,-0.009428,-0.005814,-0.001386,0.003832,0.009768,0.016311,0.023315,0.030614,0.038032,0.045402,0.05259,0.059512,0.066164,0.072651,0.079123,0.085591,0.092013,0.09831,0.104386,0.110137,0.115461,0.120263,0.124467,0.128015,0.130876,0.133043,0.134538,0.135408,0.135723,0.135572,0.135058,0.134293,0.133383,0.132426,0.131494,0.130623,0.1298,0.12895,0.128111,0.127418,0.126929,0.126637,0.126481,0.126368,0.126178,0.125785,0.125058,0.123878,0.122138,0.119753,0.116664,0.112837,0.108267,0.102978,0.097018,0.090455,0.083375,0.075873,0.068045,0.059978,0.051737,0.043354,0.034833,0.02621,0.017562,0.008993,0.00062,-0.007434,-0.015055,-0.022141,-0.02861,-0.034405,-0.039497,-0.043884,-0.047596,-0.050688,-0.053242,-0.055358,-0.05715,-0.058736,-0.060231,-0.061737,-0.063328,-0.065034,-0.066832,-0.068698,-0.070819,-0.073345,-0.076336,-0.079776,-0.083596,-0.087682,-0.091898,-0.096092,-0.10011,-0.103806,-0.107047,-0.109721,-0.111742,-0.113051,-0.11362,-0.11345,-0.112567,-0.111023,-0.108888,-0.106243,-0.103172,-0.099753,-0.096044,-0.091986,-0.087406,-0.082247,-0.076559,-0.070471,-0.064163,-0.057846,-0.051739,-0.046049,-0.040965,-0.036635,-0.033169,-0.030626,-0.029015,-0.028296,-0.028383,-0.029151,-0.030447,-0.032102,-0.033947,-0.035835,-0.037657,-0.039374,-0.041038,-0.042704,-0.044343,-0.045901,-0.047314,-0.048517,-0.049451
-0.020924,-0.01944,-0.018178,-0.017232,-0.016588,-0.016147,-0.015761,-0.015254,-0.014438,-0.013139,-0.011203,-0.008514,-0.004997,-0.000625,0.004578,0.010543,0.017156,0.02427,0.031713,0.039305,0.046874,0.054277,0.061425,0.06831,0.075034,0.081737,0.088418,0.09502,0.101456,0.107622,0.113411,0.118719,0.123454,0.127541,0.130929,0.133594,0.135537,0.136788,0.137405,0.137467,0.137074,0.136336,0.135372,0.134295,0.133204,0.132173,0.131232,0.130362,0.129474,0.128601,0.12788,0.127371,0.127063,0.126896,0.126769,0.126563,0.126144,0.125379,0.124144,0.122331,0.119854,0.116651,0.11269,0.107968,0.10251,0.096368,0.089616,0.082344,0.074653,0.066645,0.058412,0.050025,0.041521,0.032917,0.024266,0.015655,0.007194,-0.000997,-0.008798,-0.016099,-0.022805,-0.028843,-0.034167,-0.03876,-0.042633,-0.04583,-0.048417,-0.050488,-0.052153,-0.053534,-0.054756,-0.055937,-0.057177,-0.058545,-0.060063,-0.061693,-0.063395,-0.065351,-0.067712,-0.070538,-0.073812,-0.077464,-0.081383,-0.085431,-0.089458,-0.093311,-0.096846,-0.099931,-0.102458,-0.104344,-0.105532,-0.105998,-0.105744,-0.1048,-0.10322,-0.101075,-0.098447,-0.095418,-0.092065,-0.088442,-0.084487,-0.08003,-0.075018,-0.069502,-0.063613,-0.057535,-0.051476,-0.045654,-0.040274,-0.035518,-0.031532,-0.028418,-0.026228,-0.024963,-0.024575,-0.02497,-0.026017,-0.027556,-0.029415,-0.031422,-0.033432,-0.035342,-0.037124,-0.038843,-0.040569,-0.042281,-0.043929,-0.045454,-0.046789,-0.047876
-0.017921,-0.016599,-0.015503,-0.014728,-0.014255,-0.013986,-0.01377,-0.013423,-0.012756,-0.011589,-0.009765,-0.007164,-0.003709,0.00063,0.005829,0.01182,0.018487,0.025681,0.033229,0.040946,0.048656,0.056214,0.063527,0.070581,0.077477,0.084348,0.091181,0.097905,0.104428,0.110639,0.116429,0.121692,0.126338,0.130296,0.133519,0.135989,0.137714,0.138733,0.13911,0.138934,0.138309,0.137357,0.136198,0.134952,0.133719,0.132573,0.131542,0.130597,0.129644,0.12871,0.127935,0.127381,0.127039,0.126845,0.126699,0.126476,0.126041,0.125258,0.123999,0.122153,0.119632,0.116371,0.112339,0.10753,0.101972,0.095716,0.08884,0.081437,0.073612,0.065473,0.057118,0.048624,0.040037,0.031388,0.022741,0.014192,0.005857,-0.002143,-0.00969,-0.016678,-0.023017,-0.028644,-0.033521,-0.037643,-0.041031,-0.043739,-0.045846,-0.047455,-0.048684,-0.049664,-0.050523,-0.051383,-0.052344,-0.05347,-0.054776,-0.05621,-0.057719,-0.059483,-0.061653,-0.064289,-0.067376,-0.070843,-0.074581,-0.078453,-0.082311,-0.086003,-0.089386,-0.092332,-0.094733,-0.096508,-0.097604,-0.097996,-0.09769,-0.096717,-0.095132,-0.093005,-0.09042,-0.087457,-0.084192,-0.080674,-0.076843,-0.072533,-0.067695,-0.062384,-0.056732,-0.05092,-0.045158,-0.039656,-0.034618,-0.030218,-0.026595,-0.023844,-0.022009,-0.021082,-0.021008,-0.021687,-0.02298,-0.024723,-0.026741,-0.028864,-0.030947,-0.032896,-0.034692,-0.036416,-0.038155,-0.039896,-0.041599,-0.043205,-0.044653,-0.045884
-0.014936,-0.013763,-0.012815,-0.012184,-0.011853,-0.011719,-0.011629,-0.011398,-0.010835,-0.009756,-0.008005,-0.005458,-0.002038,0.002284,0.007486,0.013498,0.020205,0.027456,0.035076,0.042878,0.050685,0.058349,0.065773,0.072944,0.079958,0.086945,0.093878,0.100679,0.107245,0.113465,0.119224,0.124418,0.128957,0.132775,0.135828,0.138102,0.139615,0.140408,0.140555,0.140149,0.139303,0.138142,0.136793,0.135376,0.133995,0.132723,0.131585,0.130548,0.129509,0.128492,0.127644,0.127028,0.126637,0.126406,0.126235,0.125998,0.125557,0.124772,0.123513,0.121667,0.119139,0.115866,0.111811,0.106969,0.101363,0.095048,0.0881,0.080616,0.072704,0.064475,0.056034,0.047468,0.038832,0.030169,0.021553,0.01309,0.004896,-0.002905,-0.010197,-0.016876,-0.022861,-0.028093,-0.032545,-0.036218,-0.039145,-0.041389,-0.043037,-0.044202,-0.045011,-0.045598,-0.046099,-0.046636,-0.04731,-0.04818,-0.049255,-0.050473,-0.051769,-0.053321,-0.055281,-0.057709,-0.060593,-0.063864,-0.067413,-0.071105,-0.074793,-0.078329,-0.08157,-0.08439,-0.086683,-0.088369,-0.089396,-0.089741,-0.08941,-0.088434,-0.08687,-0.084786,-0.082266,-0.079391,-0.076231,-0.072838,-0.069149,-0.065007,-0.060367,-0.055286,-0.049898,-0.044381,-0.038941,-0.033786,-0.029109,-0.025082,-0.021832,-0.019448,-0.017964,-0.017366,-0.017591,-0.01853,-0.020041,-0.021956,-0.024099,-0.026299,-0.028418,-0.030367,-0.03214,-0.033833,-0.035549,-0.037287,-0.039015,-0.04068,-0.042224,-0.04359
